# .PCD v0.7 - Point Cloud Data file format
VERSION 0.7
FIELDS x y z distances
SIZE 4 4 4 4
TYPE F F F F
COUNT 1 1 1 1
WIDTH 1069
HEIGHT 1
VIEWPOINT 0 0 0 1 0 0 0
POINTS 1069
DATA ascii
-5.3428545 0.91519547 -2.700728e-10 4.921
-5.3470521 0.9446435 -2.6846955e-10 4.9290004
-5.3570127 0.97499543 -2.6717487e-10 4.9430003
-5.3460069 1.0024456 -2.6473315e-10 4.9360003
-5.3674717 1.0347579 -2.640444e-10 4.9620004
-5.3561301 1.0621873 -2.615827e-10 4.9550004
-5.3574638 1.0916159 -2.5979885e-10 4.9610004
-5.3655214 1.1222608 -2.5836472e-10 4.9740005
-5.3536906 1.1495569 -2.5588043e-10 4.967
-5.3554826 1.1792524 -2.5410873e-10 4.9740005
-5.3620071 1.2099223 -2.5257565e-10 4.9860001
-5.3703041 1.2410797 -2.5112418e-10 5
-5.3754621 1.2717758 -2.4950267e-10 5.0110002
-5.3618207 1.298725 -2.4692542e-10 5.0030003
-5.3470545 1.3253416 -2.4429789e-10 4.9940004
-5.3673143 1.3595035 -2.4341523e-10 5.0210004
-5.3697786 1.389992 -2.4163588e-10 5.0300002
-5.3808246 1.4225687 -2.402688e-10 5.0480003
-5.387764 1.4543893 -2.3868901e-10 5.0620003
-5.3857536 1.4842039 -2.3666835e-10 5.0670004
-5.387444 1.5150017 -2.3482022e-10 5.0760002
-5.3821602 1.5441276 -2.3263544e-10 5.0780001
-5.3883138 1.57627 -2.309853e-10 5.092
-5.3932934 1.6082675 -2.2926985e-10 5.105
-5.3768492 1.634553 -2.2655681e-10 5.0960002
-5.4093742 1.6744548 -2.2608841e-10 5.138
-5.4060311 1.7045883 -2.2396289e-10 5.1430001
-5.4073038 1.736135 -2.2204068e-10 5.1530004
-5.4055014 1.7668843 -2.1997387e-10 5.1600003
-5.4264617 1.8046747 -2.1890527e-10 5.1910005
-5.3917785 1.8254886 -2.1538157e-10 5.164
-5.4027619 1.8605092 -2.1385538e-10 5.1850004
-5.4135036 1.8957092 -2.1230241e-10 5.2060003
-5.4154592 1.9282582 -2.1035992e-10 5.2180004
-5.4115176 1.9589646 -2.0816003e-10 5.2240005
-5.423461 1.9952122 -2.0661686e-10 5.2470002
-5.3974028 2.01842 -2.0348881e-10 5.23
-5.4192715 2.0585372 -2.0233017e-10 5.2640004
-5.4032493 2.0852933 -1.9961401e-10 5.2580004
-5.2651753 2.0667741 -1.9202309e-10 5.1220002
-5.0516953 2.0181379 -1.8155658e-10 4.9050002
-5.0452871 2.0462406 -1.793654e-10 4.9090004
-5.2781153 2.1677752 -1.864318e-10 5.1700001
-5.4204526 2.2566485 -1.8982639e-10 5.335
-5.4367342 2.2966921 -1.8831767e-10 5.3650002
-4.2982378 1.8629845 -1.4356823e-10 4.1470003
-4.2788591 1.8810368 -1.4119161e-10 4.1360002
-4.2676859 1.9024321 -1.3912374e-10 4.1340003
-4.1921124 1.8960384 -1.3473128e-10 4.0620003
-5.4476571 2.471813 -1.7789217e-10 5.4430003
-4.1384325 1.923877 -1.2955541e-10 4.0240002
-3.9748533 1.8756307 -1.222325e-10 3.8550003
-3.9464719 1.8872783 -1.1969095e-10 3.8340001
-3.8655043 1.8741486 -1.153837e-10 3.7550001
-3.8272939 1.880234 -1.125712e-10 3.7230003
-5.4648619 2.690788 -1.6508112e-10 5.5500002
-5.4283276 2.7088954 -1.6161171e-10 5.5250001
-3.9845321 2.0305042 -1.1301363e-10 3.9300003
-3.9770167 2.0523117 -1.1115182e-10 3.9330001
-3.8553059 2.0160029 -1.0572934e-10 3.8080001
-3.6488497 1.9342775 -9.7809774e-11 3.5870001
-3.6161888 1.9407203 -9.5326948e-11 3.5610001
-3.6506729 1.9825052 -9.4863388e-11 3.6110001
-3.6486838 2.0052953 -9.3290077e-11 3.6200001
-3.6254768 2.0166109 -9.1098129e-11 3.6050003
-3.4946556 1.9681052 -8.5871636e-11 3.4670002
-3.5292966 2.0106933 -8.536704e-11 3.5180001
-3.5131397 2.0250437 -8.3430041e-11 3.5110002
-3.5047152 2.0437629 -8.1706593e-11 3.5130002
-3.4521525 2.0366957 -7.8817938e-11 3.4640002
-3.4066582 2.0331557 -7.6154111e-11 3.4230001
-3.4187453 2.063642 -7.4985872e-11 3.4490001
-3.4109282 2.0823712 -7.3300359e-11 3.4520001
-3.4157619 2.1089418 -7.192022e-11 3.4700003
-3.4263225 2.1393368 -7.0660866e-11 3.4950001
-3.4205728 2.1597574 -6.8999223e-11 3.5010002
-3.4247885 2.1866484 -6.75595e-11 3.5190001
-3.4279525 2.2131071 -6.6080447e-11 3.5360003
-3.4125252 2.2275813 -6.4181889e-11 3.5310001
-3.4086833 2.2496996 -6.2533589e-11 3.5400002
-3.4220963 2.2835782 -6.123415e-11 3.5700002
-3.3897896 2.2866681 -5.8986711e-11 3.5450001
-12.732708 8.7700377 -2.4054911e-10 14.917001
-12.755255 8.8917341 -2.3425378e-10 15.005001
-3.4376886 2.3964272 -5.5058999e-11 3.6470001
-3.4343107 2.4201133 -5.3340613e-11 3.6580002
-12.783679 9.2359848 -2.1420089e-10 15.228001
-12.769287 9.3353491 -2.0697812e-10 15.275001
-3.7143428 2.7080624 -5.2837949e-11 4.0540004
-3.6890264 2.7185175 -5.0566676e-11 4.04
-3.6565418 2.7233043 -4.8200197e-11 4.0170002
-4.1213083 3.1114347 -5.3066076e-11 4.6220002
-4.1134915 3.1394441 -5.0791336e-11 4.6330004
-4.1650977 3.2145824 -4.9297229e-11 4.7200003
-9.9128666 7.8469682 -1.2011667e-10 12.102
-9.8283167 7.8691025 -1.133429e-10 12.05
-9.7229414 7.8734007 -1.0637938e-10 11.971001
-9.7148447 7.9571376 -1.0054856e-10 12.018001
-9.7160463 8.0493898 -9.4767458e-11 12.078001
-9.6913261 8.1205606 -8.867896e-11 12.105
-9.6668491 8.192359 -8.2566148e-11 12.133
-9.5897627 8.2188797 -7.5987779e-11 12.092001
-9.5562391 8.2830667 -6.9783797e-11 12.109
-3.6819713 3.1858323 -2.0447345e-11 4.3320003
-3.6628406 3.2024941 -1.8174753e-11 4.329
-8.6096458 7.9712243 -2.9481327e-11 11.199
-3.4480085 3.136739 -8.7093562e-12 4.1270003
-3.4112396 3.1346149 -6.5096383e-12 4.099
-3.3760285 3.133558 -4.3410787e-12 4.0730004
-3.3359501 3.1272681 -2.1957273e-12 4.04
-3.3094826 3.1340411 -8.5177342e-14 4.026
-3.27319 3.1306481 2.0037333e-12 3.9980001
-3.2524116 3.1426623 4.0858428e-12 3.9920001
-3.2357578 3.1588464 6.1708208e-12 3.9920001
-7.8462567 8.0204039 2.2111417e-11 10.692
-7.7046337 8.050951 3.3043075e-11 10.617001
-7.3847995 7.795217 3.7113e-11 10.212001
-7.2520933 7.737803 4.1893537e-11 10.080001
-2.6767457 2.746433 1.5478891e-11 3.3090003
-2.5779543 2.664423 1.6544386e-11 3.1820002
-2.5178506 2.6241415 1.7802954e-11 3.1120002
-2.4930692 2.6232336 1.9318758e-11 3.095
-2.4768426 2.6319757 2.0904114e-11 3.0910001
-2.4638202 2.644419 2.2521013e-11 3.0920002
-2.4430053 2.647599 2.4044539e-11 3.0810001
-2.3896575 2.6113667 2.5131262e-11 3.0190001
-2.3742068 2.6202209 2.667446e-11 3.016
-2.3587186 2.6289742 2.8213635e-11 3.0130002
-2.3269439 2.6173296 2.9491774e-11 2.9840002
-2.3232884 2.640687 3.1206905e-11 3.0000002
-2.2954059 2.6333539 3.2511664e-11 2.9770002
-2.2609479 2.6170707 3.3665643e-11 2.9430001
-2.2497947 2.6306758 3.5237622e-11 2.947
-2.2319221 2.6354468 3.6675333e-11 2.9400001
-2.2056918 2.6288617 3.7922679e-11 2.9190001
-2.1831541 2.6268837 3.9228079e-11 2.904
-2.1730466 2.6417096 4.0811174e-11 2.9100001
-2.1622417 2.6556845 4.2384544e-11 2.9150002
-2.1478608 2.6647193 4.3871299e-11 2.914
-2.1500719 2.6974182 4.580707e-11 2.9420002
-2.1252155 2.6915729 4.7014143e-11 2.9230001
-2.1044343 2.6913002 4.8316278e-11 2.9110003
-2.1038513 2.7207072 5.0220456e-11 2.9350002
-2.1063087 2.7551808 5.2253282e-11 2.9650002
-2.0897295 2.761363 5.3698476e-11 2.9610002
-2.0862105 2.7875605 5.5585272e-11 2.9810002
-2.0759618 2.8037 5.7260741e-11 2.9890001
-2.0752113 2.8350112 5.9296443e-11 3.0150001
-2.0672588 2.8553751 6.1094359e-11 3.0280001
-2.0706782 2.8944542 6.3358506e-11 3.0630002
-2.0653729 2.9199944 6.5316995e-11 3.0820003
-2.0690989 2.9609871 6.7683179e-11 3.1190002
-2.0841382 3.0218916 7.0595328e-11 3.1790001
-2.0798275 3.0511298 7.2725458e-11 3.2020001
-2.0952404 3.1150455 7.5805071e-11 3.2650001
-2.1149149 3.1879201 7.9182917e-11 3.3380001
-4.8789525 8.14326 2.1831612e-10 9.0120001
-4.8380322 8.1775665 2.2309249e-10 9.0220003
-4.7531872 8.1318274 2.2557547e-10 8.941
-4.7141328 8.1689787 2.3041399e-10 8.9550009
-4.6672759 8.1918144 2.3483901e-10 8.9530001
-4.5891719 8.1550417 2.3746327e-10 8.8840008
-4.5309339 8.1549349 2.4115421e-10 8.8570004
-4.4851007 8.1784706 2.4555871e-10 8.8570004
-4.4359894 8.1954861 2.497573e-10 8.8500004
-4.3730564 8.1844168 2.5305033e-10 8.8120003
-4.3274941 8.2079334 2.5743638e-10 8.8130007
-4.259254 8.1843233 2.6027008e-10 8.7620001
-4.1961303 8.1701307 2.6337688e-10 8.7220001
-1.7124072 2.967514 9.0745161e-11 2.9570003
-1.6195451 2.8066444 8.6427129e-11 2.7720001
-1.568592 2.7331629 8.4996732e-11 2.684
-1.5482439 2.7258573 8.5824833e-11 2.6690001
-1.5199853 2.7000823 8.5982527e-11 2.6340001
-1.5067282 2.7080324 8.7329047e-11 2.6360002
-1.4836395 2.6928995 8.7834184e-11 2.6130002
-1.4765731 2.7154095 8.9712092e-11 2.631
-1.4487458 2.6879745 8.9736996e-11 2.595
-0.93545103 1.4588027 4.4283556e-11 1.263
-0.92235088 1.44574 4.4285929e-11 1.2460001
-0.93162602 1.4893789 4.6467812e-11 1.2900001
-1.0512242 1.8216094 5.9968537e-11 1.6430001
-1.3728789 2.7006872 9.5361212e-11 2.5790002
-1.3536118 2.6918809 9.6025417e-11 2.5640001
-1.3474849 2.7186377 9.8113309e-11 2.5870001
-1.3252467 2.7011499 9.8414929e-11 2.5630002
-1.314507 2.7155659 1.0001214e-10 2.5730002
-1.2971122 2.7110298 1.0082859e-10 2.5630002
-1.1007353 2.1768291 7.9379024e-11 1.9940001
-1.0626625 2.0988855 7.6847501e-11 1.9080001
-0.9386096 1.7533435 6.2784396e-11 1.5410001
-0.93007684 1.7560912 6.3500628e-11 1.5410001
-0.90423256 1.703428 6.179781e-11 1.483
-0.87521297 1.6380849 5.9491502e-11 1.4120001
-0.86878717 1.6452553 6.0354777e-11 1.4170001
-0.87411481 1.6926981 6.3028804e-11 1.4640001
-0.86869502 1.7046834 6.413392e-11 1.4740001
-0.86558253 1.725318 6.5641693e-11 1.493
-0.86806715 1.7671788 6.8141819e-11 1.534
-0.86593252 1.7936621 6.9958872e-11 1.559
-0.85564566 1.7901825 7.0391082e-11 1.5530001
-0.87118858 1.8873893 7.5576198e-11 1.651
-0.89094156 2.0061696 8.1863787e-11 1.771
-0.82960641 1.7977946 7.2527727e-11 1.554
-0.82497311 1.8174211 7.4068064e-11 1.572
-0.83611542 1.9062198 7.8998731e-11 1.6610001
-0.83042771 1.9249539 8.0549352e-11 1.6780001
-0.82089847 1.9270693 8.1288712e-11 1.6780001
-0.81635386 1.9526035 8.3198511e-11 1.702
-2.1069503 8.2426014 4.0062734e-10 8.1230001
-2.0588777 8.2432117 4.0371839e-10 8.1140003
-2.0114267 8.2464771 4.0693857e-10 8.1080008
-1.9643629 8.2514248 4.1024092e-10 8.1040001
-1.9165754 8.2521601 4.1332182e-10 8.0960007
-1.8681341 8.2486696 4.161759e-10 8.0840006
-1.8218009 8.2567148 4.1962855e-10 8.0840006
-1.77461 8.2595558 4.2280529e-10 8.0790005
-1.7269619 8.2591553 4.258052e-10 8.0710001
-1.6808723 8.2683563 4.2931575e-10 8.073
-1.6328307 8.2644281 4.3211668e-10 8.0620003
-1.5858525 8.2671432 4.352719e-10 8.0580006
-1.5390155 8.2705727 4.3846346e-10 8.0550003
-1.492305 8.2747192 4.4169257e-10 8.0530005
-1.4229815 8.0949783 4.3468174e-10 7.8660002
-1.3661439 8.0031033 4.3245707e-10 7.7680006
-0.84372824 3.7177231 1.9353381e-10 3.4510002
-0.81894773 3.674139 1.9233991e-10 3.4050002
-0.7870611 3.5537629 1.8672142e-10 3.2820001
-0.75798637 3.4480691 1.8185661e-10 3.1740003
-0.73959821 3.4497375 1.8313008e-10 3.1740003
-0.72267032 3.4692388 1.8544308e-10 3.1920002
-0.70302182 3.4557443 1.8583382e-10 3.177
-0.68886369 3.5179431 1.9068198e-10 3.2380002
-0.67032731 3.5231998 1.9219268e-10 3.2420001
-0.65027589 3.5033929 1.9220821e-10 3.2210002
-0.63151532 3.5034351 1.9340206e-10 3.2200003
-0.61215132 3.4903822 1.9380277e-10 3.2060001
-0.59438092 3.5121839 1.9631534e-10 3.2270002
-0.51242071 1.7190121 8.766475e-11 1.432
-0.50300723 1.6822972 8.593129e-11 1.3950001
-0.49480078 1.6785133 8.6212093e-11 1.391
-0.48631996 1.656684 8.5364556e-11 1.3690001
-0.47829744 1.6518027 8.5564e-11 1.3640001
-0.4705593 1.6838738 8.8091624e-11 1.396
-0.46243104 1.6599 8.7085533e-11 1.3720001
-0.45439485 1.6698792 8.8229389e-11 1.3820001
-0.4465369 1.6538125 8.7708195e-11 1.3660001
-0.43864289 1.6506999 8.8011778e-11 1.363
-0.43092227 1.6415434 8.7920608e-11 1.3540001
-0.42258814 1.6573331 8.9452314e-11 1.3700001
-0.41438055 1.6640764 9.0401596e-11 1.3770001
-0.40617397 1.668772 9.1220802e-11 1.3820001
-0.3985118 1.6604325 9.1177794e-11 1.3740001
-0.38928026 1.6840075 9.3260795e-11 1.3980001
-0.38052398 1.6945424 9.4485648e-11 1.409
0.75540394 19.381128 1.2895904e-09 19.132
0.86659074 19.375719 1.2963066e-09 19.134001
0.97956115 19.393595 1.3046145e-09 19.160002
1.0901909 19.378904 1.3107061e-09 19.154001
1.2044325 19.406412 1.3197061e-09 19.191
1.3164533 19.405357 1.3267517e-09 19.200001
1.4296995 19.415585 1.3345915e-09 19.221001
1.5428116 19.422159 1.3421908e-09 19.239
1.6562845 19.430052 1.3498967e-09 19.259001
1.7699164 19.437271 1.3575701e-09 19.279001
1.8803014 19.416025 1.3632296e-09 19.271002
1.9943339 19.423895 1.3709698e-09 19.293001
2.1088033 19.433069 1.3788203e-09 19.317001
2.2242951 19.447498 1.3870695e-09 19.347
2.3398976 19.460245 1.3952187e-09 19.376001
2.4533339 19.456474 1.4021817e-09 19.389002
2.5702546 19.473763 1.4107031e-09 19.424002
2.6871519 19.488361 1.4190522e-09 19.457001
2.8200743 19.594923 1.4342578e-09 19.584002
3.03563 20.162481 1.4839805e-09 20.18
3.1583455 20.181152 1.4929576e-09 20.220001
3.280843 20.196121 1.5016857e-09 20.257002
2.2719846 14.378108 1.0682246e-09 14.353001
2.3176079 14.18056 1.0585784e-09 14.168
2.3810143 14.079927 1.0562148e-09 14.082001
2.4651403 14.081741 1.0616715e-09 14.101001
2.5481048 14.077181 1.0666497e-09 14.114
2.6354933 14.091637 1.073116e-09 14.147
2.7202318 14.092874 1.0785749e-09 14.167001
2.8057804 14.096511 1.0842376e-09 14.190001
2.9013877 14.140433 1.0930968e-09 14.255001
3.0333731 14.327323 1.1133433e-09 14.468
4.6317644 20.251297 1.5909636e-09 20.603001
4.7541299 20.245516 1.5983659e-09 20.628
4.884872 20.269897 1.6082152e-09 20.685001
5.0216198 20.313686 1.6196782e-09 20.763
5.1377497 20.280485 1.6249436e-09 20.762001
5.2605624 20.270645 1.6321166e-09 20.786001
5.3991799 20.313797 1.6436578e-09 20.866001
5.532764 20.336849 1.653603e-09 20.926001
5.6381912 20.265293 1.6557536e-09 20.888
5.6501393 19.895327 1.6330219e-09 20.538
5.7195334 19.719358 1.6262551e-09 20.391001
5.8500586 19.737288 1.635681e-09 20.448002
5.9649777 19.705936 1.640987e-09 20.454
6.0439343 19.567785 1.6372286e-09 20.348001
6.0645857 19.263891 1.6192445e-09 20.067001
2.5913467 9.0003567 7.4705048e-10 9.2320004
2.6204586 8.9221735 7.439348e-10 9.1680002
2.6200631 8.7650042 7.3393053e-10 9.0200005
2.6300955 8.6409597 7.2669148e-10 8.9070005
2.6613562 8.5769787 7.2461392e-10 8.8580008
2.7123864 8.5661383 7.2716572e-10 8.8660002
2.7637594 8.5559168 7.2977857e-10 8.875
2.828032 8.5779095 7.3525586e-10 8.9190006
2.8784463 8.5641947 7.3758605e-10 8.9250002
2.9398222 8.5770016 7.4229611e-10 8.96
2.9987655 8.5829144 7.4641404e-10 8.9880009
3.0520353 8.5746098 7.4926909e-10 9.0010004
3.1128447 8.583415 7.5368917e-10 9.033
3.1706669 8.584465 7.5742712e-10 9.0570002
3.2627602 8.661871 7.6818918e-10 9.165
3.3760498 8.7831373 7.8308199e-10 9.3220005
3.4387474 8.789752 7.8748286e-10 9.3540001
3.494895 8.7814217 7.9051887e-10 9.3700008
6.1925416 14.357555 1.3158491e-09 15.564001
6.2504692 14.269025 1.313906e-09 15.509001
6.3141646 14.193784 1.3131729e-09 15.469001
6.3869638 14.137996 1.314253e-09 15.451001
6.4754882 14.114007 1.3183507e-09 15.469001
6.5789366 14.118867 1.3252275e-09 15.52
6.6629448 14.084783 1.3283974e-09 15.528001
6.684618 13.931487 1.3200402e-09 15.402
6.7000599 13.76958 1.3107406e-09 15.266001
6.6967874 13.576264 1.2982586e-09 15.094001
6.730341 13.454534 1.29266e-09 15.003
6.7515802 13.312746 1.2850059e-09 14.889001
6.7993202 13.220861 1.282203e-09 14.832001
1.1841462 3.1802671 2.8816549e-10 3.3280001
1.1854534 3.1437898 2.8593244e-10 3.2970002
1.1879067 3.1099861 2.839419e-10 3.2690001
1.19563 3.0857148 2.8289121e-10 3.2520001
1.2545992 3.1471856 2.9053834e-10 3.3350003
1.1968857 3.0149796 2.7847971e-10 3.1920002
1.1933092 2.9737852 2.7563704e-10 3.1550002
1.2142012 2.9725928 2.7688785e-10 3.1650002
6.8942142 11.918841 1.2055584e-09 13.762001
6.9099617 11.795017 1.1986964e-09 13.666
6.9321413 11.683151 1.1930018e-09 13.584001
6.9362445 11.545512 1.1845233e-09 13.471001
6.9561744 11.434022 1.1787097e-09 13.389001
6.9672346 11.311072 1.1716055e-09 13.293
6.9748631 11.185071 1.1640896e-09 13.193001
6.9915113 11.074165 1.1581048e-09 13.111001
7.00139 10.955243 1.1511813e-09 13.019001
7.0078259 10.833308 1.1438479e-09 12.923
7.0282507 10.732792 1.1387626e-09 12.853001
7.0301356 10.608119 1.1309664e-09 12.753
7.0515513 10.511984 1.1262222e-09 12.688001
7.0667315 10.40873 1.1206301e-09 12.614
7.07796 10.301653 1.1145445e-09 12.535001
7.0833483 10.188427 1.1076974e-09 12.448001
7.0882878 10.076271 1.1008899e-09 12.362
7.1069479 9.9833126 1.0961725e-09 12.3
7.1123853 9.8747787 1.0896264e-09 12.218
7.1386738 9.7938461 1.0861569e-09 12.171
7.1340852 9.6756191 1.078359e-09 12.076
6.8470917 9.214241 1.0308423e-09 11.537001
6.7585282 9.0021687 1.0117539e-09 11.317
6.7557716 8.8964157 1.0048643e-09 11.234
6.7850242 8.8298826 1.0024972e-09 11.202001
6.822216 8.7731638 1.0012574e-09 11.183001
6.8563704 8.7132835 9.9962394e-10 11.160001
6.9178004 8.6848392 1.0017184e-09 11.179001
6.9578834 8.6320534 1.0009118e-09 11.166
7.0430837 8.6296377 1.006168e-09 11.221001
7.1163883 8.6131992 1.0097787e-09 11.258
7.2073684 8.6153145 1.0156896e-09 11.321
7.2400007 8.5537329 1.0138516e-09 11.298
7.2625742 8.4818668 1.0107218e-09 11.261001
7.2583456 8.3825207 1.0041455e-09 11.186001
7.2608624 8.2914171 9.9852082e-10 11.122001
7.290524 8.2291832 9.964527e-10 11.098001
7.2923183 8.1391287 9.9084874e-10 11.035001
7.2996902 8.0556889 9.8601893e-10 10.981001
7.3134637 7.9794626 9.8205366e-10 10.937
2.5724576 3.2205555 3.788721e-10 4.2200003
2.5352337 3.1510479 3.7209538e-10 4.145
2.5496569 3.1315045 3.7177028e-10 4.1420002
2.5847409 3.0983081 3.7189013e-10 4.145
2.6054716 3.0845797 3.7233472e-10 4.151
2.6462038 3.0887797 3.751876e-10 4.184
2.846894 3.2349296 3.9720965e-10 4.4310002
2.9030135 3.2499897 4.0172909e-10 4.4830003
2.890764 3.204767 3.9807999e-10 4.4440002
2.891752 3.1715229 3.9603196e-10 4.4230003
2.9046593 3.1487269 3.9540407e-10 4.4180002
2.8967388 3.108515 3.9234799e-10 4.3860002
2.9100122 3.0863745 3.9178499e-10 4.3820004
2.9099967 3.0533948 3.8969003e-10 4.3610001
2.9400108 3.0450659 3.9106687e-10 4.3790002
2.9973609 3.0583599 3.9555231e-10 4.4320002
3.0510583 3.0679758 3.9957229e-10 4.48
3.0915918 3.0665882 4.020578e-10 4.5110002
3.1140263 3.0507605 4.0247727e-10 4.5190001
3.1689868 3.0596433 4.0653089e-10 4.5680003
3.2337508 3.0752051 4.1163106e-10 4.6290002
3.2723548 3.0703886 4.1377635e-10 4.6570001
3.3158596 3.068774 4.1643608e-10 4.691
3.37322 3.0767443 4.2058418e-10 4.7420001
3.4161804 3.0736394 4.2311471e-10 4.7750001
3.4469998 3.0614481 4.2429749e-10 4.7930002
7.5314465 5.8898587 8.6321811e-10 9.7610006
7.5079865 5.804564 8.5631285e-10 9.6930008
7.5283856 5.7502069 8.541568e-10 9.6790009
7.5459352 5.6941209 8.5170998e-10 9.6620007
7.5522876 5.6308055 8.4809315e-10 9.6320009
7.5523272 5.5637498 8.4383811e-10 9.5950003
7.5317373 5.4837961 8.3745422e-10 9.5340004
7.5694013 5.4420681 8.3719626e-10 9.5430002
7.5494094 5.3636847 8.3095003e-10 9.4840002
7.5745602 5.3143435 8.2941409e-10 9.4790001
7.5798392 5.2527995 8.2584167e-10 9.4510002
7.5957761 5.1981292 8.2338236e-10 9.4360008
7.6036363 5.138804 8.2011464e-10 9.4120007
7.5938811 5.069345 8.1508506e-10 9.368
7.6232848 5.0234127 8.1403562e-10 9.3700008
7.6160631 4.9562845 8.0931489e-10 9.3300009
7.5970411 4.8829627 8.0345169e-10 9.2770004
7.6323509 4.8409066 8.0302337e-10 9.2870007
7.6228476 4.7738509 7.9816237e-10 9.2460003
7.6514382 4.7281847 7.9707818e-10 9.2490005
7.6340108 4.657639 7.9149248e-10 9.2000008
7.6283965 4.5940247 7.8709689e-10 9.165
7.6630497 4.5520005 7.8662893e-10 9.1760006
7.6681776 4.494554 7.8330703e-10 9.1540003
7.6773667 4.4394636 7.8039258e-10 9.1370001
7.6736836 4.3781219 7.7626394e-10 9.1060009
7.68121 4.3227339 7.7322504e-10 9.0880003
7.6757879 4.2612553 7.6897727e-10 9.0560007
7.7041707 4.2164507 7.679346e-10 9.0620003
7.7061019 4.15903 7.6441137e-10 9.0390005
7.7185149 4.1067963 7.6188306e-10 9.0280008
7.7160597 4.0478654 7.5798545e-10 9.0010004
7.7432594 4.0027037 7.5684498e-10 9.007
7.7382431 3.9431031 7.527422e-10 8.9780006
7.760282 3.8957405 7.5113438e-10 8.9790001
7.5635543 3.7538853 7.2963657e-10 8.7420006
7.4740601 3.6605961 7.1803102e-10 8.6230001
7.4464931 3.5946999 7.1209677e-10 8.5720005
7.4776182 3.5535841 7.1146239e-10 8.585
7.4427137 3.4855926 7.0492917e-10 8.5270004
7.4546771 3.4369683 7.0260148e-10 8.5200005
0.98713672 0.85459125 1.2799171e-10 1.5560001
1.0268123 0.86014396 1.308634e-10 1.595
0.98895419 0.83592683 1.2692204e-10 1.5510001
0.99774271 0.82956445 1.2707609e-10 1.557
1.2640033 3.0963688 -2.6580052e-10 3.4780002
1.2768253 3.063467 -2.645256e-10 3.4490001
1.2752618 2.9742544 -2.587619e-10 3.3620002
1.2927392 2.963655 -2.5919861e-10 3.3560002
2.8646789 8.4757023 -7.0898482e-10 9.0870008
2.9177775 8.4692793 -7.1194839e-10 9.0950003
2.97419 8.4740715 -7.158345e-10 9.1150007
3.0296164 8.4746637 -7.1939132e-10 9.1310005
3.0997603 8.5237656 -7.269626e-10 9.1980009
3.1427882 8.4814939 -7.2701062e-10 9.1700001
3.2056723 8.5039349 -7.3242823e-10 9.21
3.2528243 8.47544 -7.3361278e-10 9.1970005
3.3154964 8.4951973 -7.3884654e-10 9.2350006
3.3866696 8.5392017 -7.4615958e-10 9.2990007
3.445329 8.543829 -7.5017781e-10 9.3220005
3.514559 8.57833 -7.5676404e-10 9.3770008
3.5789936 8.5972233 -7.6205486e-10 9.4160004
3.6309633 8.5798826 -7.6425355e-10 9.4170008
3.6968584 8.6007662 -7.6976342e-10 9.4590006
3.7783906 8.6624393 -7.7885604e-10 9.5450001
6.7411442 14.040642 -1.3084515e-09 15.644001
1.0151087 0.82972252 -1.0608036e-10 1.2470001
1.0260884 0.83542264 -1.0713941e-10 1.2570001
1.026258 0.81964767 -1.0614858e-10 1.243
1.0336095 0.8181234 -1.0651856e-10 1.245
1.0279623 0.79175174 -1.0448559e-10 1.2190001
1.022967 0.76724988 -1.026127e-10 1.1950001
1.0366883 0.77805239 -1.0416981e-10 1.2110001
1.0390421 0.7676717 -1.0366015e-10 1.2030001
1.0340232 0.74418032 -1.0184994e-10 1.1800001
1.0282609 0.71991175 -9.9943179e-11 1.156
1.0271852 0.70443553 -9.8892242e-11 1.1420001
1.0429474 0.71845204 -1.0078299e-10 1.1620001
1.0275822 0.67880404 -9.7290016e-11 1.12
1.0331961 0.67549759 -9.7436524e-11 1.12
1.0336407 0.66358662 -9.6708495e-11 1.11
1.0350063 0.65341175 -9.6149158e-11 1.102
1.0331234 0.63814652 -9.5060362e-11 1.0880001
1.0416799 0.63989705 -9.571479e-11 1.0940001
1.0427889 0.62974942 -9.5140895e-11 1.0860001
1.0481172 0.62635541 -9.5263707e-11 1.0860001
1.0425338 0.60615635 -9.3626697e-11 1.0660001
1.0482743 0.60359967 -9.3828841e-11 1.067
1.0462443 0.58935404 -9.2795452e-11 1.054
1.0535741 0.58925694 -9.3254682e-11 1.0580001
1.0445677 0.56515568 -9.1152565e-11 1.033
1.0364388 0.54283464 -8.9219201e-11 1.01
1.0447029 0.54439414 -8.9842925e-11 1.016
1.0570521 0.55159622 -9.1084314e-11 1.029
1.040354 0.51805955 -8.7894726e-11 0.99200004
1.0479712 0.51872683 -8.8420743e-11 0.99700004
1.0473217 0.50805384 -8.7701839e-11 0.98800004
1.051942 0.50463551 -8.7778153e-11 0.98800004
1.0607547 0.5067811 -8.847393e-11 0.99500006
1.0562713 0.49135715 -8.7209948e-11 0.98000002
1.047963 0.47126302 -8.5406585e-11 0.95900005
1.0572941 0.47414595 -8.6182096e-11 0.96700007
1.0672987 0.47773024 -8.7044899e-11 0.97600007
1.0436291 0.43905851 -8.3086635e-11 0.93100005
1.0598042 0.45042941 -8.4835625e-11 0.95000005
1.0514134 0.43146911 -8.3099014e-11 0.93000007
1.0479289 0.41879043 -8.2072758e-11 0.91800004
1.0546008 0.41843438 -8.2473778e-11 0.92200005
1.0574054 0.41345051 -8.2335402e-11 0.92000002
1.0582172 0.40618226 -8.1925453e-11 0.91500002
1.0517485 0.39062616 -8.0527036e-11 0.89900005
1.0570064 0.38868585 -8.0737673e-11 0.90100002
1.0589379 0.38297197 -8.0497525e-11 0.89800006
1.0715284 0.38914967 -8.1689176e-11 0.91100007
1.0855573 0.39668182 -8.3058165e-11 0.92600006
1.0847855 0.38789541 -8.2451275e-11 0.91900003
1.1057547 0.40254629 -8.4712917e-11 0.94400007
1.1159359 0.40533662 -8.5536522e-11 0.95300007
1.1254808 0.40730816 -8.6267736e-11 0.96100003
1.132292 0.4063144 -8.6637107e-11 0.96500003
1.1384153 0.40454951 -8.6913844e-11 0.96800005
1.1438378 0.40202549 -8.7097878e-11 0.97000003
1.1591525 0.40936211 -8.8536088e-11 0.98600006
1.1610633 0.4031857 -8.8265249e-11 0.98300004
1.1622107 0.39631191 -8.7901658e-11 0.97900003
1.1748105 0.40056372 -8.8971622e-11 0.99100006
1.1910996 0.40814433 -9.0487187e-11 1.008
1.194409 0.40320504 -9.0383701e-11 1.0070001
1.2152367 0.41462016 -9.243091e-11 1.0300001
1.2185754 0.40954876 -9.2320894e-11 1.029
1.2226198 0.40513587 -9.2297489e-11 1.029
1.2392708 0.41207573 -9.379536e-11 1.046
1.2522932 0.41552076 -9.4840934e-11 1.0580001
1.2496144 0.40496707 -9.4000752e-11 1.049
1.2672153 0.41218388 -9.5576512e-11 1.067
1.2765833 0.41205001 -9.6162828e-11 1.074
1.2875015 0.41312537 -9.692433e-11 1.0830001
1.2854375 0.40316856 -9.6161093e-11 1.075
1.3079169 0.41368818 -9.8256306e-11 1.0990001
1.3112103 0.4081215 -9.811197e-11 1.098
1.3222386 0.40883428 -9.885745e-11 1.107
1.3403304 0.41506582 -1.0040182e-10 1.125
1.3389142 0.40560237 -9.9711038e-11 1.118
1.3500252 0.40603113 -1.0044374e-10 1.1270001
1.3762096 0.41796556 -1.0286403e-10 1.1550001
1.4089226 0.43447033 -1.0598903e-10 1.1910001
1.4163029 0.43135723 -1.0625997e-10 1.1950001
1.4260852 0.42997441 -1.0679329e-10 1.202
1.4391057 0.43087214 -1.0767701e-10 1.2130001
1.4238553 0.41106734 -1.0545123e-10 1.189
1.4539009 0.42412099 -1.0818774e-10 1.2210001
1.4694464 0.4264366 -1.0932181e-10 1.235
1.4678512 0.41654843 -1.0859268e-10 1.228
1.4998944 0.43002737 -1.1148304e-10 1.2620001
1.5156131 0.43187478 -1.1259837e-10 1.276
1.5289011 0.4318856 -1.1344276e-10 1.2870001
1.5422246 0.431766 -1.1428112e-10 1.2980001
1.5564178 0.43206504 -1.1520129e-10 1.3100001
1.5748439 0.43494672 -1.1655418e-10 1.327
1.5722958 0.42414221 -1.1570638e-10 1.319
1.5907824 0.42676526 -1.1704671e-10 1.3360001
1.6008565 0.42389688 -1.1750423e-10 1.3430001
1.6313609 0.43353692 -1.2005312e-10 1.3740001
1.637246 0.42776257 -1.2006016e-10 1.376
1.6482463 0.42503494 -1.2058542e-10 1.3840001
1.62227 0.40026766 -1.1736354e-10 1.3490001
1.6314318 0.39653727 -1.177084e-10 1.355
1.6587747 0.40322536 -1.1986914e-10 1.3820001
1.6592994 0.39427167 -1.1933396e-10 1.378
1.6815538 0.39758489 -1.2095733e-10 1.399
1.7117578 0.40502602 -1.2334754e-10 1.429
1.7315602 0.40638077 -1.2469088e-10 1.447
1.7531806 0.40847778 -1.2619678e-10 1.4670001
1.7766334 0.41128549 -1.2786415e-10 1.4890001
1.8063612 0.41709453 -1.301205e-10 1.5180001
1.7944502 0.40099549 -1.2834205e-10 1.5000001
1.8251636 0.40685537 -1.3066422e-10 1.5300001
1.8774357 0.42315444 -1.3501802e-10 1.5840001
1.9147066 0.43132523 -1.3790327e-10 1.6210001
1.9161695 0.421547 -1.3737531e-10 1.618
1.9446065 0.42477325 -1.3938571e-10 1.6450001
1.9595726 0.42127249 -1.4011368e-10 1.6570001
1.9627664 0.41212618 -1.3973574e-10 1.6560001
1.9986178 0.41799465 -1.4238467e-10 1.6910001
2.0108981 0.41275325 -1.4283159e-10 1.7
2.024996 0.40820646 -1.4343804e-10 1.7110001
2.0674849 0.41596645 -1.4662849e-10 1.7530001
2.103688 0.42048171 -1.4921385e-10 1.7880001
2.1243494 0.41795489 -1.5036528e-10 1.8060001
2.1468816 0.41598237 -1.5167068e-10 1.8260001
2.2008946 0.42669481 -1.5578031e-10 1.8800001
2.2235649 0.42406163 -1.5705254e-10 1.9000001
2.2602022 0.4267284 -1.5954808e-10 1.9350001
2.2950664 0.42826474 -1.6185928e-10 1.9680001
2.3412106 0.43372107 -1.6513556e-10 2.013
2.3734446 0.4333685 -1.6715983e-10 2.043
2.3972988 0.42953667 -1.6843112e-10 2.0640001
2.4258704 0.42716208 -1.7009445e-10 2.0900002
2.4808445 0.43390566 -1.7401311e-10 2.1440001
2.5038805 0.42877311 -1.7514987e-10 2.164
2.5486703 0.43088752 -1.7812797e-10 2.207
2.5982895 0.43410552 -1.8148279e-10 2.2550001
2.6432693 0.4351967 -1.8440798e-10 2.2980001
2.6436348 0.42125925 -1.8354625e-10 2.2940001
2.681071 0.41918224 -1.8579133e-10 2.329
2.6746466 0.4029831 -1.8435489e-10 2.3180001
2.6690655 0.38717526 -1.8299683e-10 2.3080001
2.6825347 0.37719414 -1.832183e-10 2.3180001
2.6633356 0.35751331 -1.8074968e-10 2.2940001
2.6641691 0.34386981 -1.7993633e-10 2.2910001
2.6966915 0.33915365 -1.8170183e-10 2.3210001
2.6896932 0.32323334 -1.8024666e-10 2.3100002
2.6864493 0.30845153 -1.7910215e-10 2.3030002
2.6840765 0.29398158 -1.7803274e-10 2.2970002
2.6961432 0.28327477 -1.7811909e-10 2.306
2.6761415 0.26445949 -1.7565448e-10 2.2820001
2.6832039 0.25251573 -1.7534453e-10 2.286
2.6843641 0.23912418 -1.7456793e-10 2.2840002
2.6766744 0.2237114 -1.7310108e-10 2.273
2.6757104 0.20994203 -1.7216562e-10 2.2690001
2.6746616 0.19620124 -1.7122656e-10 2.2650001
2.6930902 0.18665034 -1.7179023e-10 2.2810001
2.674268 0.16921198 -1.6948794e-10 2.2590001
2.6847336 0.15790838 -1.6943473e-10 2.2670002
2.6755102 0.14267954 -1.6788215e-10 2.2550001
2.6907523 0.13220394 -1.6818481e-10 2.2680001
2.6675808 0.11456455 -1.6559358e-10 2.2420001
2.677763 0.10311781 -1.655133e-10 2.25
2.6809859 0.090389885 -1.6490979e-10 2.2510002
2.660454 0.073742047 -1.6254913e-10 2.2280002
2.6802983 0.063765466 -1.6317565e-10 2.2460001
2.658581 0.047235556 -1.6074722e-10 2.2220001
2.6723666 0.036192913 -1.6092137e-10 2.2340002
2.6702533 0.022772091 -1.5993507e-10 2.23
2.665086 0.0089861946 -1.5873165e-10 2.223
2.6776857 -0.0024288583 -1.5880687e-10 2.2340002
2.6763313 -0.015688678 -1.5787896e-10 2.2310002
2.6719179 -0.029271765 -1.5673632e-10 2.2250001
2.6694095 -0.042573478 -1.5573247e-10 2.2210002
2.6588652 -0.056674551 -1.5416765e-10 2.2090001
2.6731093 -0.06817238 -1.5434203e-10 2.2220001
2.6703675 -0.08141087 -1.5332738e-10 2.2180002
2.6824892 -0.093300417 -1.5334212e-10 2.2290001
2.6905603 -0.10565003 -1.5307047e-10 2.2360001
2.676626 -0.11975262 -1.5129031e-10 2.2210002
2.6745739 -0.13284798 -1.5032856e-10 2.2180002
2.6624651 -0.14655481 -1.4868944e-10 2.2050002
2.6672435 -0.15912443 -1.4819473e-10 2.2090001
2.689925 -0.17080012 -1.4889354e-10 2.2310002
2.6865726 -0.18394901 -1.4784581e-10 2.227
2.6911366 -0.19672793 -1.4732421e-10 2.2310002
2.6726408 -0.2103627 -1.4528413e-10 2.2120001
2.6520634 -0.22383772 -1.4312204e-10 2.1910002
2.6843901 -0.23582917 -1.4441319e-10 2.223
2.6676581 -0.24905738 -1.4251092e-10 2.2060001
2.6618471 -0.26195937 -1.4132276e-10 2.2
2.6759605 -0.27467299 -1.4141163e-10 2.214
2.6949999 -0.28754917 -1.4180297e-10 2.233
2.6749647 -0.30042571 -1.3971328e-10 2.2130001
2.6828539 -0.31339049 -1.3939103e-10 2.2210002
2.682668 -0.32630908 -1.3855897e-10 2.2210002
2.6854062 -0.33929572 -1.3790827e-10 2.2240002
2.6850696 -0.35222864 -1.3706575e-10 2.2240002
2.6626711 -0.36439535 -1.3487107e-10 2.2020001
2.6611898 -0.37715507 -1.3396687e-10 2.2010002
2.6666267 -0.39022478 -1.3348223e-10 2.207
2.6789765 -0.40372595 -1.3340913e-10 2.22
2.6592972 -0.41551879 -1.3141085e-10 2.2010002
2.678477 -0.42957443 -1.3173621e-10 2.2210002
2.6676395 -0.44176963 -1.3027379e-10 2.2110002
2.6537442 -0.45361754 -1.2863927e-10 2.1980002
2.6049016 -0.4624671 -1.2497618e-10 2.1500001
2.4504335 -0.46153313 -1.1522779e-10 1.9960001
2.3458385 -0.4634476 -1.0846514e-10 1.8920001
2.2532334 -0.46533436 -1.0246554e-10 1.8000001
2.0811102 -0.45780101 -9.2015166e-11 1.628
2.0612102 -0.46512395 -9.0286688e-11 1.6090001
1.9667859 -0.46352684 -8.4392784e-11 1.5150001
1.9309988 -0.46801797 -8.1835393e-11 1.48
1.8396686 -0.46496019 -7.6230675e-11 1.3890001
1.7841058 -0.46564308 -7.2659448e-11 1.3340001
1.7622533 -0.47041193 -7.0969168e-11 1.3130001
1.7206014 -0.47203726 -6.8221352e-11 1.2720001
1.6433862 -0.46776599 -6.358989e-11 1.1950001
1.6314551 -0.47291631 -6.2505327e-11 1.184
1.5672045 -0.46934766 -5.865243e-11 1.12
1.5385269 -0.47107688 -5.6721808e-11 1.092
1.5010042 -0.47091746 -5.4349483e-11 1.0550001
1.4625372 -0.47014874 -5.1955888e-11 1.0170001
1.4359084 -0.47115797 -5.0201066e-11 0.99100006
1.3916328 -0.46843222 -4.7562919e-11 0.94700003
1.365073 -0.46873206 -4.5857512e-11 0.92100006
1.3591089 -0.47297212 -4.5209614e-11 0.91600007
1.3276935 -0.47174773 -4.3292682e-11 0.88500005
1.2894849 -0.46867037 -4.1062081e-11 0.84700006
1.289395 -0.47370002 -4.0737025e-11 0.84800005
1.2756329 -0.47558787 -3.9743354e-11 0.83500004
1.2326845 -0.47040877 -3.7345259e-11 0.79200006
1.2141187 -0.47063914 -3.6151825e-11 0.77400005
1.1965472 -0.47090155 -3.5019487e-11 0.75700003
1.1828742 -0.47195536 -3.4084437e-11 0.74400002
1.1730843 -0.47386858 -3.3341361e-11 0.73500001
1.1613647 -0.47515681 -3.2515452e-11 0.72400004
1.1332588 -0.47182277 -3.094261e-11 0.69600004
1.109068 -0.46924776 -2.9570148e-11 0.67200005
1.1080022 -0.47300881 -2.9263671e-11 0.67200005
1.102116 -0.47535831 -2.874076e-11 0.66700006
1.0789797 -0.47248644 -2.7454103e-11 0.64400005
1.0874591 -0.47899431 -2.7579281e-11 0.65400004
1.0653347 -0.47607893 -2.6359638e-11 0.63200003
1.026114 -0.46745342 -2.4417045e-11 0.59200001
1.0279133 -0.47165844 -2.4264301e-11 0.59500003
1.0353786 -0.47777662 -2.4349828e-11 0.60400003
1.0456338 -0.48494744 -2.4545668e-11 0.61600006
1.0170557 -0.47890291 -2.3114942e-11 0.58700001
1.016879 -0.48245937 -2.2877903e-11 0.588
1.0308055 -0.4910658 -2.3215695e-11 0.60400003
1.0390116 -0.49778959 -2.3309814e-11 0.61400002
1.0312166 -0.49871153 -2.2756349e-11 0.60700005
1.0281092 -0.50131363 -2.239383e-11 0.60500002
1.035261 -0.50782686 -2.2434377e-11 0.61400002
1.0162725 -0.50424922 -2.1455887e-11 0.59500003
1.0298753 -0.51337427 -2.1740195e-11 0.611
1.0294814 -0.51704836 -2.1481905e-11 0.61200005
1.0253636 -0.51920617 -2.1083446e-11 0.60900003
1.0249313 -0.52286458 -2.0823714e-11 0.61000001
1.0401255 -0.53316516 -2.1134424e-11 0.62800002
1.029506 -0.53256506 -2.0498259e-11 0.61800003
1.035401 -0.53907204 -2.0459398e-11 0.62600005
1.0321028 -0.54159021 -2.0090105e-11 0.62400001
1.0333512 -0.54613793 -1.988062e-11 0.62700003
1.0191157 -0.54361701 -1.9136819e-11 0.61300004
1.0239635 -0.54981053 -1.905137e-11 0.62
1.0296618 -0.55649674 -1.8988642e-11 0.62800002
1.0181741 -0.5550319 -1.8352262e-11 0.61700004
1.0229028 -0.56133008 -1.825262e-11 0.62400001
1.0347476 -0.57123941 -1.8375499e-11 0.63900006
1.0313022 -0.57366914 -1.8002469e-11 0.63700002
1.027848 -0.5760684 -1.7630815e-11 0.63500005
1.0350466 -0.58394504 -1.7587763e-11 0.64500004
1.0271144 -0.58402449 -1.7079078e-11 0.63800001
1.0377449 -0.5938769 -1.7128479e-11 0.65200001
1.0368356 -0.59769535 -1.6828297e-11 0.65300006
1.0122081 -0.58856618 -1.5844253e-11 0.62700003
1.0340672 -0.60484666 -1.6198459e-11 0.65400004
1.0426763 -0.61404562 -1.6161015e-11 0.66600001
1.0338172 -0.61345983 -1.5635708e-11 0.65800005
1.0267168 -0.61378175 -1.5164446e-11 0.65200001
1.0291276 -0.61958551 -1.4949013e-11 0.65700001
1.0289091 -0.62389868 -1.4661279e-11 0.65900004
1.0380895 -0.63388395 -1.4610181e-11 0.67200005
1.0386299 -0.63878876 -1.4333067e-11 0.67500001
1.0357279 -0.64161241 -1.3969519e-11 0.67400002
1.0243307 -0.63911676 -1.3404337e-11 0.66300005
1.0493202 -0.65949124 -1.3697361e-11 0.69500005
1.0345196 -0.65480787 -1.3054976e-11 0.68000001
1.0374082 -0.66139889 -1.2819906e-11 0.68600005
1.0394039 -0.66748643 -1.2560094e-11 0.69100004
1.0505042 -0.67970574 -1.2489053e-11 0.70700002
1.037436 -0.67585534 -1.1903784e-11 0.69400001
1.0285624 -0.67468554 -1.1414638e-11 0.68600005
1.0361739 -0.68479824 -1.1255835e-11 0.69800001
1.041229 -0.6932922 -1.1037483e-11 0.70700002
1.0413088 -0.69838923 -1.0718918e-11 0.71000004
1.0510993 -0.71049559 -1.0571883e-11 0.72500002
1.0429671 -0.70980209 -1.009957e-11 0.71800005
1.0380858 -0.71139759 -9.6883387e-12 0.71500003
1.0444373 -0.72130841 -9.4623476e-12 0.72600001
1.0363148 -0.7204777 -8.999369e-12 0.71900004
1.0353793 -0.72502381 -8.6513184e-12 0.72100002
1.0431191 -0.73629344 -8.4271973e-12 0.73400003
1.0523231 -0.74889857 -8.2112485e-12 0.74900001
1.0323713 -0.73868352 -7.5930286e-12 0.72700006
1.0437962 -0.75323683 -7.3943924e-12 0.74500006
1.0496294 -0.76353395 -7.1109754e-12 0.75600004
1.0483999 -0.76821154 -6.7359109e-12 0.75800002
1.0286579 -0.75757539 -6.1577436e-12 0.73600006
1.042006 -0.77435863 -5.9396416e-12 0.75700003
1.0452659 -0.78290087 -5.604248e-12 0.76500005
1.0423766 -0.78628546 -5.2058947e-12 0.76500005
1.0394676 -0.78965318 -4.8073654e-12 0.76500005
1.032033 -0.78904229 -4.3740961e-12 0.75900006
1.0552592 -0.8156116 -4.1618388e-12 0.79400003
1.0440031 -0.81169522 -3.6958167e-12 0.78300005
1.0527766 -0.82584429 -3.3545011e-12 0.79900002
1.0327215 -0.81368786 -2.8529906e-12 0.77600002
1.0450151 -0.83131742 -2.514192e-12 0.79700005
1.0331137 -0.8264668 -2.0665112e-12 0.78500003
1.0502299 -0.8491081 -1.7157047e-12 0.81300002
1.0368823 -0.84279758 -1.2688967e-12 0.79900002
1.0458074 -0.8580097 -8.6970947e-13 0.81600004
1.0488834 -0.86772144 -4.4838655e-13 0.82500005
1.0412569 -0.86688405 -1.7329078e-14 0.81900007
1.0385822 -0.87095487 4.1096919e-13 0.82000005
1.0533547 -0.89289218 8.6588587e-13 0.84600002
1.0512152 -0.89776033 1.3108341e-12 0.84800005
1.0435137 -0.89683837 1.7412827e-12 0.84200007
1.052317 -0.91330057 2.2275706e-12 0.86000001
1.0425295 -0.9101432 2.6485485e-12 0.85100001
1.045001 -0.92012602 3.1254565e-12 0.86000001
1.0392926 -0.9212895 3.56178e-12 0.85700005
2.9629757 -3.0968578 1.9554811e-11 3.7610002
2.9703755 -3.1383846 2.1721654e-11 3.7970002
2.9793448 -3.1823554 2.3944019e-11 3.8360002
2.9715905 -3.207567 2.6037143e-11 3.8500001
2.9746342 -3.2457428 2.8267796e-11 3.8810003
2.9818182 -3.2894127 3.0584396e-11 3.9190001
2.9898558 -3.3348045 3.2956159e-11 3.9590001
2.9961815 -3.378844 3.5350726e-11 3.9970002
2.9813058 -3.3974185 3.7474589e-11 4.0020003
2.9900489 -3.4455886 3.9977945e-11 4.0450001
2.9846661 -3.4767103 4.2295747e-11 4.066
2.99933 -3.5338757 4.49943e-11 4.1200004
3.0678153 -3.6617548 4.8765408e-11 4.263
3.2817051 -3.9829197 5.5576672e-11 4.6480002
3.3510671 -4.1198311 5.9865612e-11 4.7990003
3.3096118 -4.110909 6.1931273e-11 4.7670002
3.282583 -4.120966 6.4285952e-11 4.7590003
3.2590621 -4.1356912 6.6714349e-11 4.7570004
3.227299 -4.1389003 6.8934851e-11 4.7410002
3.1955938 -4.1418715 7.1136534e-11 4.7250004
3.1582103 -4.1364136 7.3163628e-11 4.6990004
3.1380529 -4.1553221 7.5644026e-11 4.7030001
3.117203 -4.1733003 7.8109373e-11 4.7060003
3.0839274 -4.1729312 8.0198723e-11 4.6870003
3.0424278 -4.1598248 8.2001517e-11 4.6530004
3.0176613 -4.1714287 8.4310767e-11 4.6490002
2.9803164 -4.1635895 8.6184199e-11 4.6220002
2.9534085 -4.1714396 8.8391121e-11 4.6140003
2.9329154 -4.1892462 9.082287e-11 4.618
2.9043472 -4.1942267 9.2953006e-11 4.6070004
2.8800068 -4.2058153 9.5234251e-11 4.6040001
2.8576949 -4.2206688 9.7594009e-11 4.605
2.8275633 -4.2225399 9.9625974e-11 4.5910001
2.801573 -4.2310739 1.0181803e-10 4.585
2.8013322 -4.2834511 1.0515891e-10 4.6300001
2.8050621 -4.34375 1.0875067e-10 4.684
2.7774675 -4.3503609 1.1092249e-10 4.6760001
2.752326 -4.3611465 1.1320363e-10 4.6730003
2.7271373 -4.3717775 1.1547792e-10 4.6700001
2.7129414 -4.402431 1.1832557e-10 4.6900001
2.6785223 -4.3960938 1.2010859e-10 4.6680002
2.6522384 -4.4045038 1.2231144e-10 4.6630001
2.6333644 -4.4269161 1.2493283e-10 4.6740003
2.584902 -4.3924012 1.258184e-10 4.6210003
2.5737081 -4.4296255 1.2889266e-10 4.6490002
2.5509267 -4.4445205 1.3128486e-10 4.6520004
2.5298183 -4.4628744 1.3379044e-10 4.6590004
2.5006723 -4.4649472 1.3577263e-10 4.6480002
2.4750392 -4.4740324 1.37977e-10 4.6450005
2.4433753 -4.4703083 1.3975099e-10 4.6280003
2.4308522 -4.5071363 1.428845e-10 4.6560001
2.391242 -4.4858074 1.4404522e-10 4.6200004
2.3688507 -4.501514 1.4646417e-10 4.625
2.3459356 -4.5161896 1.4885093e-10 4.6290002
2.3164871 -4.5160875 1.5071423e-10 4.6170001
2.2930486 -4.5295582 1.5305772e-10 4.6200004
2.2667794 -4.5364561 1.5516362e-10 4.6160002
2.2478185 -4.5607228 1.5790827e-10 4.631
2.215708 -4.5534658 1.5948633e-10 4.612
2.1867416 -4.5533977 1.6132116e-10 4.6010003
2.1530321 -4.5410566 1.6267791e-10 4.5770001
2.1315389 -4.5592041 1.6519486e-10 4.5860004
2.097698 -4.545507 1.6647383e-10 4.5610003
2.0796139 -4.5727258 1.6935024e-10 4.5800004
2.0595295 -4.5951891 1.7205178e-10 4.5940003
2.0310235 -4.5950131 1.7385055e-10 4.5840001
1.9965111 -4.5777035 1.7494281e-10 4.5560002
1.9731872 -4.5912752 1.7728542e-10 4.5610003
1.9484541 -4.6009383 1.7946936e-10 4.5620003
1.9259019 -4.6170907 1.8192683e-10 4.5700002
1.8887309 -4.5894651 1.8253293e-10 4.5320001
1.8621373 -4.5929375 1.8444189e-10 4.5270004
1.8440571 -4.6229229 1.8749374e-10 4.5500002
1.8188159 -4.6308889 1.8960218e-10 4.5500002
1.7827014 -4.6033278 1.9014527e-10 4.513
1.7618818 -4.6253066 1.9286268e-10 4.5280004
1.7338134 -4.623199 1.9451102e-10 4.5180001
1.7102283 -4.636291 1.9683978e-10 4.5240002
1.6881559 -4.6550317 1.9943115e-10 4.5360003
1.6648483 -4.669805 2.0184904e-10 4.5440001
1.6351923 -4.6612749 2.0319037e-10 4.5280004
1.6089714 -4.665123 2.0509958e-10 4.5250001
1.5834891 -4.6717215 2.0713647e-10 4.5250001
1.5599064 -4.6859326 2.0953614e-10 4.533
1.5283899 -4.6679549 2.1039574e-10 4.5080004
1.5003525 -4.6633811 2.1188554e-10 4.4970002
1.4800625 -4.6917562 2.1497544e-10 4.52
1.4517927 -4.6858969 2.1639837e-10 4.5080004
1.4268337 -4.6945109 2.1853003e-10 4.5110002
1.4009755 -4.6990709 2.2046139e-10 4.5100002
1.3757041 -4.7064166 2.2253235e-10 4.5120001
1.348411 -4.703814 2.2410003e-10 4.5040002
1.3253833 -4.7226372 2.2675729e-10 4.5180001
1.2967904 -4.7128448 2.2795101e-10 4.5030003
1.2749883 -4.7392678 2.3101299e-10 4.5250001
1.246819 -4.7311201 2.3228421e-10 4.5120001
1.2223046 -4.7434964 2.3462651e-10 4.52
1.1952356 -4.7409368 2.3618268e-10 4.513
1.1697894 -4.7480898 2.3825253e-10 4.5160003
1.1405102 -4.7303839 2.3898739e-10 4.4940004
1.1150917 -4.7372236 2.4103555e-10 4.4970002
1.0912904 -4.7558007 2.4372632e-10 4.5120001
1.0674287 -4.7752428 2.4647578e-10 4.5280004
1.0383723 -4.7558775 2.4709113e-10 4.5050001
1.0138376 -4.7710648 2.4961322e-10 4.5170002
0.98833102 -4.7791653 2.5174701e-10 4.5220003
0.96396559 -4.7980523 2.5449329e-10 4.5380001
0.93667263 -4.7909517 2.5577535e-10 4.5280004
0.90868682 -4.7757249 2.5658548e-10 4.5100002
0.88210666 -4.7732692 2.5811722e-10 4.5050001
0.85557014 -4.7706561 2.596362e-10 4.5
0.83095652 -4.7908096 2.6247862e-10 4.5180001
0.80505967 -4.7968683 2.6450758e-10 4.5220003
0.77805382 -4.7878146 2.6564742e-10 4.5110002
0.75110072 -4.7776017 2.6671032e-10 4.4990001
0.72626448 -4.8011703 2.697837e-10 4.5210004
0.7001636 -4.8056269 2.7172389e-10 4.5240002
0.67430073 -4.8159256 2.7401992e-10 4.533
0.64705449 -4.7951026 2.7442776e-10 4.5110002
0.62065625 -4.7911062 2.7585009e-10 4.506
0.59434009 -4.7879548 2.7732092e-10 4.5020003
0.56844336 -4.8006454 2.7977096e-10 4.5140004
0.54201275 -4.7911897 2.8084873e-10 4.5040002
0.51580316 -4.7905788 2.824741e-10 4.5030003
0.48969519 -4.8048153 2.8503569e-10 4.5170002
0.4634158 -4.7939 2.8601121e-10 4.506
0.43725863 -4.7838321 2.8703281e-10 4.4960003
0.41104901 -4.7886119 2.8900043e-10 4.5010004
0.38515988 -4.7712417 2.8954131e-10 4.4840002
0.35820866 -4.8087091 2.9363145e-10 4.5220003
0.33214235 -4.8000321 2.9473557e-10 4.5140004
0.30596596 -4.7972016 2.9621786e-10 4.5120001
0.27989882 -4.7922211 2.9755673e-10 4.5080004
0.25369966 -4.7910852 2.991481e-10 4.5080004
0.22818361 -4.7768149 2.9986214e-10 4.4950004
0.20271108 -4.7643971 3.0069103e-10 4.4840002
0.17425689 -4.8007364 3.0480496e-10 4.5220003
0.14710724 -4.8119545 3.0724107e-10 4.5350003
0.12177361 -4.7970834 3.0790537e-10 4.5220003
0.095872857 -4.7910409 3.0916622e-10 4.5180001
0.068989068 -4.7968044 3.1123912e-10 4.526
0.042118259 -4.8014116 3.1323777e-10 4.533
0.016361646 -4.7939177 3.1439731e-10 4.5280004
-0.010676568 -4.7992053 3.1644981e-10 4.5360003
-0.037021551 -4.7973733 3.180062e-10 4.5370002
-0.064055718 -4.8013468 3.1997502e-10 4.5440001
-0.090180695 -4.7972178 3.213716e-10 4.5430002
-0.1170392 -4.7988887 3.2318304e-10 4.5480003
-0.14327055 -4.795444 3.2462982e-10 4.5480003
-0.17267489 -4.8146238 3.2771461e-10 4.5710001
-0.19610466 -4.7910657 3.2770645e-10 4.5510001
-0.22529624 -4.8069339 3.3056743e-10 4.5710001
-0.25204077 -4.8058228 3.3219499e-10 4.5740004
-0.2750732 -4.7818561 3.3213568e-10 4.5540004
-0.30522472 -4.8011527 3.3527531e-10 4.5780001
-0.33371934 -4.8094168 3.3760922e-10 4.5910001
-0.36018723 -4.8056951 3.3905348e-10 4.592
-0.38700849 -4.8037844 3.4063513e-10 4.5950003
-0.41231108 -4.7938609 3.4161157e-10 4.5900002
-0.44105861 -4.801446 3.4391848e-10 4.6030002
-0.46911645 -4.8049307 3.4592121e-10 4.612
-0.49682984 -4.8062859 3.4776687e-10 4.6190004
-0.51968557 -4.7849994 3.4786654e-10 4.6030002
-0.54495347 -4.77531 3.4885567e-10 4.5990005
-0.57867754 -4.8025074 3.5272377e-10 4.6330004
-0.60653406 -4.8031893 3.5453576e-10 4.6400003
-0.63160229 -4.792038 3.5541939e-10 4.6350002
-0.65754354 -4.7846298 3.5659614e-10 4.6340003
-0.67972678 -4.762538 3.5660191e-10 4.618
-0.71458745 -4.7896833 3.605389e-10 4.6530004
-0.74489105 -4.7982187 3.6300493e-10 4.6690001
-0.76952332 -4.7853351 3.6375086e-10 4.6630001
-0.7994405 -4.7915759 3.6604667e-10 4.677
-0.82066232 -4.7668576 3.6582465e-10 4.6590004
-0.84838092 -4.765079 3.6747169e-10 4.6650004
-0.87612182 -4.7631288 3.6910922e-10 4.671
-0.9050526 -4.764833 3.7105433e-10 4.6810002
-0.93226296 -4.7606239 3.7251477e-10 4.6850004
-0.96007681 -4.7581549 3.7412401e-10 4.691
-0.98945218 -4.7602696 3.7612341e-10 4.7020001
-1.0204719 -4.7669406 3.7851652e-10 4.7180004
-1.0442638 -4.7516084 3.7905365e-10 4.7110004
-1.0741073 -4.7541184 3.8110787e-10 4.723
-1.1073382 -4.7658691 3.8396392e-10 4.7450004
-1.1330246 -4.7557225 3.849506e-10 4.7440004
-1.1647962 -4.7623448 3.8738837e-10 4.7610002
-1.1838541 -4.7340498 3.8680187e-10 4.7410002
-1.2241466 -4.7627668 3.911835e-10 4.7820001
-1.2465688 -4.743546 3.9138676e-10 4.7720003
-1.2757301 -4.7419157 3.931348e-10 4.7810001
-1.3023481 -4.7335906 3.9429629e-10 4.783
-1.3341681 -4.7380891 3.9660225e-10 4.7990003
-1.3573676 -4.7210894 3.9699591e-10 4.7920003
-1.3950616 -4.7390409 4.0052903e-10 4.8230004
-1.4103822 -4.7033048 3.9923279e-10 4.796
-1.4538444 -4.7336645 4.0391998e-10 4.8410001
-1.4812779 -4.7261086 4.0518208e-10 4.8450003
-1.5082822 -4.7174702 4.0634821e-10 4.848
-1.5401921 -4.7196035 4.0850973e-10 4.8630004
-1.5617679 -4.6987925 4.0855827e-10 4.8530002
-1.5987945 -4.7114196 4.1171097e-10 4.8800001
-1.6313331 -4.7138209 4.1392942e-10 4.8960004
-1.6557451 -4.698864 4.1452974e-10 4.8930001
-1.6813686 -4.68647 4.1536974e-10 4.8930001
-1.7215475 -4.7035084 4.1900264e-10 4.9260001
-1.75213 -4.7005634 4.2075746e-10 4.9370003
-1.7813909 -4.6947384 4.2224546e-10 4.9450002
-1.816624 -4.7002721 4.2483389e-10 4.9660001
-1.8459651 -4.6940298 4.2630049e-10 4.9740005
-1.8739026 -4.6849442 4.2749748e-10 4.9790001
-1.9150927 -4.7003341 4.3108994e-10 5.0120001
-1.9301738 -4.6671247 4.2993889e-10 4.9900002
-1.9648131 -4.6697559 4.3230533e-10 5.0090003
-2.0049491 -4.6817236 4.3561357e-10 5.039
-2.0408542 -4.6855497 4.3813625e-10 5.0600004
-2.0683925 -4.6743808 4.3917558e-10 5.0640001
-2.0984092 -4.6673565 4.4063544e-10 5.0730004
-2.1304679 -4.6635723 4.4243073e-10 5.0860004
-2.1641135 -4.6621351 4.4447573e-10 5.1020002
-2.2019877 -4.6672893 4.4720774e-10 5.1260004
-2.2190235 -4.6380973 4.4643589e-10 5.1100001
-2.2707641 -4.6648397 4.5141907e-10 5.1600003
-2.3063352 -4.664927 4.5368312e-10 5.1790004
-2.3274348 -4.6420126 4.5356791e-10 5.1710005
-2.3619697 -4.6399732 4.5563117e-10 5.1880002
-2.4015176 -4.6452003 4.5847406e-10 5.2140002
-2.4378974 -4.6451187 4.6077875e-10 5.2340002
-2.471019 -4.6397853 4.6254311e-10 5.2480001
-2.4979763 -4.6251278 4.6332407e-10 5.2510004
-2.5464647 -4.6415658 4.6744647e-10 5.2920003
-2.5619938 -4.6100621 4.6643217e-10 5.2750001
-2.618299 -4.6364632 4.7168347e-10 5.3290005
-2.6336362 -4.6046562 4.7063781e-10 5.3120003
-2.6633947 -4.593049 4.7179027e-10 5.3200002
-2.6593692 -4.5353112 4.6786869e-10 5.2710004
-2.6696992 -4.4978251 4.6614446e-10 5.2470002
-2.7067678 -4.4963121 4.6840204e-10 5.2680001
-2.7245278 -4.4690595 4.677993e-10 5.2570004
-2.7665083 -4.4734149 4.7074133e-10 5.2860003
-2.8338768 -4.5097404 4.7732518e-10 5.3560004
-2.8125045 -4.4324317 4.7105964e-10 5.2820001
-2.774734 -4.3359909 4.6253809e-10 5.1830001
-2.7837605 -4.2992144 4.6077614e-10 5.1600003
-2.7893012 -4.2586017 4.5854928e-10 5.1320004
-2.7983074 -4.2226806 4.568404e-10 5.1100001
-2.8018668 -4.1806598 4.5439832e-10 5.0800004
-2.7914622 -4.1227179 4.5005877e-10 5.0290003
-2.8078527 -4.0968986 4.4946011e-10 5.0200005
-2.8050356 -4.0491238 4.4624787e-10 4.9820004
-2.8195984 -4.0217929 4.4543719e-10 4.9710002
-2.8259799 -3.9854529 4.4353501e-10 4.9480004
-2.8200104 -3.9357836 4.4000231e-10 4.9070001
-2.8371365 -3.9121931 4.3959189e-10 4.901
-2.8554542 -3.8899982 4.393457e-10 4.8970003
-2.8913496 -3.8867345 4.414176e-10 4.9190001
-2.9376082 -3.8940895 4.4482168e-10 4.9560003
-2.9819946 -3.8988562 4.479426e-10 4.9900002
-3.0341887 -3.9111433 4.5203674e-10 5.0350003
-3.0810528 -3.9172199 4.5539811e-10 5.072
-3.1309161 -3.9257188 4.5910373e-10 5.1130004
-3.1781695 -3.9309299 4.6243487e-10 5.1500001
