# .PCD v0.7 - Point Cloud Data file format
VERSION 0.7
FIELDS x y z distances
SIZE 4 4 4 4
TYPE F F F F
COUNT 1 1 1 1
WIDTH 1072
HEIGHT 1
VIEWPOINT 0 0 0 1 0 0 0
POINTS 1072
DATA ascii
-4.4340959 -0.24737661 -2.8618827e-10 4.0080004
-4.4311914 -0.22349469 -2.8448752e-10 4.0020003
-4.4043231 -0.19673616 -2.8108257e-10 3.9720001
-4.4080691 -0.17391111 -2.7987118e-10 3.9730003
-4.4285789 -0.15293665 -2.7984165e-10 3.9910002
-4.4350538 -0.13027361 -2.7881383e-10 3.9950001
-4.4205027 -0.10547373 -2.7631528e-10 3.9780002
-4.4157543 -0.081788212 -2.7450994e-10 3.9710002
-4.4287958 -0.059742548 -2.7393823e-10 3.9820001
-4.4167976 -0.035520248 -2.7163849e-10 3.9680002
-4.1942577 0.0045251586 -2.5496605e-10 3.7430003
-4.1369877 0.03036556 -2.4968907e-10 3.6840003
-4.1334338 0.052068319 -2.4808544e-10 3.6790001
-4.1367402 0.073313028 -2.4694649e-10 3.6810002
-4.145915 0.094273329 -2.461982e-10 3.6890001
-4.1260023 0.11668669 -2.4351077e-10 3.6680002
-4.1439219 0.13730881 -2.4333918e-10 3.6850002
-4.1557288 0.15834413 -2.4275323e-10 3.6960001
-4.1434255 0.18021345 -2.405835e-10 3.6830001
-4.1369915 0.20179467 -2.388047e-10 3.6760001
-4.1274319 0.22335024 -2.3682911e-10 3.6660001
-4.1347446 0.24459107 -2.3594476e-10 3.6730001
-4.1959338 0.26559219 -2.3849642e-10 3.7340002
-4.408 0.28728026 -2.5058419e-10 3.9460001
-4.4279366 0.31034774 -2.5038538e-10 3.9660001
-4.4367385 0.33352128 -2.4947289e-10 3.9750001
-4.2084398 0.3526991 -2.3375979e-10 3.7470002
-4.0130515 0.36998519 -2.2025637e-10 3.5520003
-3.9225516 0.38803753 -2.1336401e-10 3.4620001
-3.970881 0.40986878 -2.1504648e-10 3.5110002
-4.4147458 0.44832405 -2.4078728e-10 3.9560001
-4.430728 0.47210315 -2.4029223e-10 3.9730003
-4.4225984 0.49482164 -2.383336e-10 3.9660001
-4.0559435 0.49663597 -2.1493823e-10 3.6000001
-3.9798212 0.5127548 -2.0908153e-10 3.5250001
-3.9415436 0.53063971 -2.0551558e-10 3.4880002
-3.9679928 0.55298764 -2.0577599e-10 3.5160003
-4.1617441 0.58929229 -2.1577282e-10 3.7120001
-4.2834582 0.6215958 -2.214498e-10 3.8360002
-4.1350865 0.63018095 -2.1148408e-10 3.6890001
-3.8723094 0.62571561 -1.9508298e-10 3.427
-3.9200137 0.65076613 -1.9652134e-10 3.4770002
-4.016242 0.68178016 -2.0066203e-10 3.5760002
-3.9215176 0.69166797 -1.9401984e-10 3.4830003
-2.9602907 0.59422219 -1.3917548e-10 2.5170002
-2.887054 0.59957188 -1.3418575e-10 2.4450002
-4.4382281 0.82246178 -2.1852298e-10 4.0120001
-4.4390125 0.84613907 -2.1706943e-10 4.0160003
-2.9346769 0.64966041 -1.340292e-10 2.4990001
-2.8623395 0.6533516 -1.292019e-10 2.4280002
-2.8512836 0.66590208 -1.2770304e-10 2.4190001
-2.8450973 0.67914659 -1.2646931e-10 2.4150002
-2.9393921 0.70944166 -1.3053288e-10 2.513
-2.9595494 0.72783595 -1.306448e-10 2.536
-2.946126 0.74038595 -1.2899568e-10 2.5250001
-2.9395208 0.75408906 -1.2770623e-10 2.5210001
-2.9289136 0.76696813 -1.2621501e-10 2.513
-2.9211824 0.78032875 -1.2487582e-10 2.5080001
-2.9368846 0.79846483 -1.2472129e-10 2.5270002
-2.9407201 0.81430697 -1.2395893e-10 2.5340002
-4.4479957 1.1586713 -1.9779609e-10 4.0800004
-4.4399352 1.1811861 -1.9585478e-10 4.0770001
-4.4483132 1.2074583 -1.9471862e-10 4.0910001
-4.4283004 1.227175 -1.9219605e-10 4.0760002
-4.4392891 1.2542453 -1.9117498e-10 4.0930004
-4.4345708 1.2776073 -1.8939204e-10 4.0940003
-4.4403734 1.3036683 -1.8810578e-10 4.1060004
-4.4372993 1.3275528 -1.8639408e-10 4.1090002
-4.4205585 1.347815 -1.8404464e-10 4.098
-4.0044336 1.2585156 -1.6329339e-10 3.6730001
-3.8177025 1.2283717 -1.5335114e-10 3.4850001
-3.8275559 1.2522838 -1.524585e-10 3.5010002
-3.7096047 1.238963 -1.4581517e-10 3.3840001
-3.6589892 1.2443674 -1.4225829e-10 3.3370001
-3.9192393 1.3441782 -1.5244511e-10 3.6150002
-3.8977618 1.3595076 -1.5010812e-10 3.5990002
-3.882894 1.3767462 -1.4806957e-10 3.5900002
-3.9240577 1.4120694 -1.4844041e-10 3.6400001
-4.1025739 1.4934909 -1.5460527e-10 3.8350003
-4.3778415 1.6099732 -1.6468708e-10 4.1330004
-4.2017708 1.5748107 -1.5574037e-10 3.9550002
-4.1300521 1.5740436 -1.5123539e-10 3.8870001
-4.000083 1.5516318 -1.4440622e-10 3.7570002
-3.634624 1.441951 -1.2816601e-10 3.3760002
-3.9391913 1.575691 -1.3901241e-10 3.7080002
-3.9569056 1.6054207 -1.3824951e-10 3.7350001
-3.9594526 1.629669 -1.3687163e-10 3.7460003
-3.9208467 1.6379921 -1.3389193e-10 3.7130001
-3.9296641 1.6647325 -1.3275396e-10 3.7310002
-3.9299417 1.6882509 -1.3127829e-10 3.7400002
-3.9041607 1.7011843 -1.288202e-10 3.7210002
-3.9983163 1.7639399 -1.3081389e-10 3.8320003
-4.0531902 1.8114341 -1.3128246e-10 3.9010003
-3.9937606 1.8105243 -1.2756683e-10 3.8460002
-4.2404003 1.9429873 -1.3481631e-10 4.125
-4.4070392 2.0434043 -1.3902095e-10 4.3180003
-4.4322987 2.0823858 -1.3814969e-10 4.3570004
-4.4227018 2.1058686 -1.3604935e-10 4.3580003
-4.4365315 2.1402833 -1.3474234e-10 4.3850002
-4.4437675 2.1719267 -1.3319262e-10 4.4050002
-4.4471626 2.2019844 -1.3149974e-10 4.421
-4.4413538 2.2277634 -1.2949412e-10 4.427
-4.4577885 2.2646251 -1.2819713e-10 4.4580002
-4.4560528 2.2927706 -1.2629989e-10 4.4690003
-4.4603624 2.3241391 -1.2458182e-10 4.487
-4.4564457 2.3514946 -1.2259624e-10 4.4960003
-4.4567747 2.3811939 -1.2073141e-10 4.5100002
-4.4586582 2.4119053 -1.1890106e-10 4.526
-4.3705297 2.3943186 -1.144221e-10 4.4400001
-4.0695043 2.2592535 -1.0388471e-10 4.1110001
-4.0054922 2.251128 -1.0033631e-10 4.0510001
-4.0192971 2.2859094 -9.9004423e-11 4.0800004
-3.4027736 1.9622076 -8.0412205e-11 3.3840001
-3.3626699 1.9617927 -7.789222e-11 3.3490002
-3.3131759 1.9554149 -7.5154626e-11 3.3030002
-3.2182622 1.9214962 -7.1281848e-11 3.2040002
-3.1427023 1.8978581 -6.7985159e-11 3.1270001
-3.1947987 1.950853 -6.7928115e-11 3.1990001
-3.0597298 1.931456 -6.0583712e-11 3.0740001
-3.0332863 1.9357482 -5.8632203e-11 3.0540001
-3.0068815 1.9397887 -5.6699114e-11 3.0340002
-2.9604623 1.9303942 -5.4348304e-11 2.9900002
-2.9408767 1.9382502 -5.260594e-11 2.9780002
-2.9071889 1.9364308 -5.05825e-11 2.9490001
-2.8393109 1.9312181 -4.6603669e-11 2.8900001
-2.8657231 1.9911413 -4.4475954e-11 2.9460001
-2.8338356 1.9893574 -4.256458e-11 2.9190001
-2.7010801 1.9339137 -3.7655788e-11 2.779
-2.7107215 1.9612385 -3.6532999e-11 2.8030002
-2.7672472 2.0242274 -3.6122633e-11 2.8860002
-2.773808 2.0503397 -3.4881247e-11 2.9070001
-2.7120552 2.0240502 -3.2629555e-11 2.8420002
-2.7019176 2.0371099 -3.1156695e-11 2.8420002
-2.6924887 2.05073 -2.9693227e-11 2.8430002
-2.6790726 2.061177 -2.817809e-11 2.8390002
-2.6889293 2.0904016 -2.6948334e-11 2.8650002
-2.4950593 1.9531488 -2.3353519e-11 2.628
-2.4445324 1.9311258 -2.154373e-11 2.575
-2.4433682 1.9496994 -2.02905e-11 2.5860002
-2.6753609 2.1663151 -2.1266832e-11 2.9030001
-2.7869675 2.3080304 -1.9355137e-11 3.0800002
-2.7398784 2.2904885 -1.7479088e-11 3.0330002
-2.7229602 2.299053 -1.5861109e-11 3.0260003
-2.560333 2.1763725 -1.332476e-11 2.8230002
-2.5751908 2.2121112 -1.1998948e-11 2.858
-2.6787941 2.3783627 -8.0212165e-12 3.0470002
-2.6810668 2.4050286 -6.4724007e-12 3.0670002
-2.6773477 2.4262352 -4.8897726e-12 3.0790002
-8.4936438 8.1311007 -1.1964879e-11 11.226001
-2.4680741 2.2698352 -1.5326612e-12 2.8200002
-2.4572184 2.2821784 -5.9683378e-14 2.8210001
-2.4842567 2.3328583 1.441405e-12 2.8760002
-2.4765208 2.3488784 2.9497494e-12 2.8820002
-2.4574087 2.4018993 7.529713e-12 2.9070001
-2.4443953 2.41274 9.0442853e-12 2.9060001
-2.6909623 2.7050619 1.1949426e-11 3.2880001
-2.6923568 2.7349858 1.3760862e-11 3.3110001
-2.6720603 2.7412322 1.5446144e-11 3.302
-2.6524317 2.7480719 1.7126715e-11 3.2940001
-7.3197308 8.1729527 6.5228122e-11 10.450001
-7.2411537 8.1747932 7.0334127e-11 10.400001
-7.1886859 8.2064743 7.5677006e-11 10.39
-7.1135745 8.2110052 8.0733774e-11 10.345
-7.0641789 8.2457161 8.6073947e-11 10.34
-6.9702244 8.2259884 9.0786906e-11 10.265
-6.8823895 8.2124329 9.5503105e-11 10.199
-6.8018079 8.2067108 1.0025621e-10 10.144
-6.7432275 8.2277718 1.053129e-10 10.124001
-6.6174889 8.1625433 1.0915489e-10 9.9950008
-6.6663222 8.3208885 1.1610815e-10 10.150001
-2.6932554 3.2117989 4.3978279e-11 3.6780002
-2.6533322 3.1943865 4.5407556e-11 3.6400001
-2.6638663 3.2439754 4.7887288e-11 3.6860001
-6.0782738 7.9202042 1.2800458e-10 9.4760008
-5.9943843 7.898551 1.3195614e-10 9.4090004
-5.9185224 7.8867426 1.3602312e-10 9.3550005
-5.8620763 7.901226 1.4052667e-10 9.3340006
-5.7970414 7.9030261 1.4477027e-10 9.2980003
-2.4398777 3.1463218 5.5908705e-11 3.4760001
-2.424345 3.1594305 5.772725e-11 3.4780002
-2.3751621 3.1227212 5.8519231e-11 3.4200001
-2.3774948 3.1620951 6.0871114e-11 3.4540002
-2.3442509 3.1481287 6.20951e-11 3.4240003
-2.3210425 3.1489673 6.362192e-11 3.4120002
-2.2876289 3.1336408 6.4770342e-11 3.381
-2.2598076 3.1264715 6.6081612e-11 3.3600001
-2.2533374 3.152992 6.8176298e-11 3.3790002
-2.2371657 3.1642151 6.9915684e-11 3.3800001
-5.3428702 8.3003292 1.9883324e-10 9.382
-5.2456832 8.2445984 2.014654e-10 9.2840004
-5.1931934 8.2619705 2.0590117e-10 9.2720003
-5.1148963 8.2349911 2.091595e-10 9.2090006
-5.0570827 8.2420073 2.1327577e-10 9.1860008
-4.95577 8.1721678 2.152741e-10 9.0750008
-4.9436474 8.2583179 2.2151381e-10 9.1440001
-2.0306199 3.1160071 7.9969087e-11 3.2340002
-2.0165415 3.1294703 8.1717813e-11 3.2390001
-1.9961867 3.1314249 8.3134298e-11 3.2310002
-1.9819679 3.1447153 8.4880943e-11 3.2360001
-1.9495287 3.1234007 8.558728e-11 3.2020001
-1.9325495 3.1311176 8.7155318e-11 3.2010002
-1.9014499 3.1111155 8.7859942e-11 3.1690001
-1.6663209 2.6843007 7.568917e-11 2.6820002
-1.6168537 2.6195772 7.4720494e-11 2.6020002
-1.5852871 2.5894098 7.4809325e-11 2.5610001
-1.5697132 2.5913992 7.5924489e-11 2.5560002
-1.5425944 2.5688848 7.6216838e-11 2.5240002
-1.5326902 2.5823817 7.770265e-11 2.5320001
-1.5084676 2.5649469 7.8133625e-11 2.506
-1.4914933 2.5627964 7.9074837e-11 2.4970002
-1.4762075 2.5641792 8.0133192e-11 2.4920001
-1.4577273 2.5581353 8.092281e-11 2.4790001
-1.4433151 2.5611348 8.2028336e-11 2.4760001
-1.4285109 2.5631235 8.3094566e-11 2.4720001
-1.4029192 2.5391822 8.3199357e-11 2.4400001
-1.3951309 2.5575662 8.4861125e-11 2.4540002
-1.3751645 2.5462682 8.5411518e-11 2.4360001
-1.3690317 2.5691979 8.7256792e-11 2.4550002
-1.3499209 2.5595336 8.7856576e-11 2.4390001
-1.3348981 2.5599926 8.8839568e-11 2.434
-1.3082451 2.5294812 8.859459e-11 2.3960001
-1.3031893 2.5559306 9.0594962e-11 2.4190001
-1.2869009 2.5523291 9.1400491e-11 2.4100001
-1.2710199 2.5495567 9.2232805e-11 2.4020002
-1.2608318 2.5627162 9.3715216e-11 2.411
-1.2440013 2.5569251 9.4416149e-11 2.4000001
-1.2298278 2.5585938 9.5422024e-11 2.3970001
-1.2131429 2.5525813 9.6099649e-11 2.3860002
-1.2005748 2.5588143 9.7293403e-11 2.388
-1.1916044 2.5764108 9.898022e-11 2.4020002
-1.1735083 2.5653443 9.942655e-11 2.3860002
-1.1608334 2.571357 1.006131e-10 2.388
-1.1541409 2.5974154 1.0269256e-10 2.411
-1.13422 2.5793328 1.0280927e-10 2.388
-1.1308119 2.6178071 1.0546853e-10 2.424
-1.1188691 2.6274347 1.0683811e-10 2.4300001
-1.1044544 2.6283233 1.0780977e-10 2.427
-1.1001564 2.6667917 1.1052515e-10 2.4630001
-1.0883352 2.6782026 1.1200024e-10 2.4710002
-1.0761547 2.6885872 1.1343297e-10 2.4780002
-1.071625 2.7299581 1.1634735e-10 2.5170002
-1.0619034 2.7519236 1.1835927e-10 2.536
-1.0531013 2.7787232 1.2061975e-10 2.5600002
-1.0566206 2.8600638 1.2556088e-10 2.6400001
-1.047137 2.8878694 1.279285e-10 2.6650002
-1.0446218 2.948864 1.3196094e-10 2.7240002
-1.0447476 3.0255644 1.3682293e-10 2.799
-1.0328624 3.0484939 1.3903342e-10 2.8190002
-2.0488408 8.1932096 4.0118087e-10 8.0630007
-2.0024455 8.2003431 4.0457962e-10 8.0610008
-1.9565765 8.2101526 4.0811482e-10 8.0620003
-1.9084903 8.2078924 4.1102444e-10 8.0510006
-1.8603066 8.2043552 4.1385925e-10 8.0390005
-1.813727 8.2093983 4.1713691e-10 8.0360003
-1.7633996 8.191473 4.1919421e-10 8.0100002
-1.7181848 8.2038479 4.2285081e-10 8.0150003
-1.6715114 8.2070675 4.2601869e-10 8.0110006
-1.6239715 8.2040749 4.2884715e-10 8.0010004
-1.5774841 8.2077293 4.3203083e-10 7.9980001
-1.5289876 8.1962461 4.3438092e-10 7.9800005
-1.4859082 8.2251301 4.389501e-10 8.0030003
-1.4350764 8.1932364 4.4015258e-10 7.9650002
-1.3886076 8.1947908 4.4320173e-10 7.9610004
-1.3413799 8.1891146 4.4583995e-10 7.9500003
-1.2999101 8.2368603 4.5150453e-10 7.9930005
-0.72585225 2.9388013 1.5156179e-10 2.664
-0.71070677 2.9432783 1.5280768e-10 2.6670001
-0.69201988 2.9078221 1.5174294e-10 2.6300001
-0.67628545 2.9031358 1.5244443e-10 2.6240001
-0.6533305 2.8026321 1.4752059e-10 2.5220001
-0.62994075 2.6790097 1.4115649e-10 2.3970001
-0.61345816 2.640029 1.3972799e-10 2.3570001
-0.60035747 2.6508529 1.4124706e-10 2.3670001
-0.58571446 2.6346414 1.4114747e-10 2.3500001
-0.572061 2.6353214 1.4205755e-10 2.3500001
-0.55832183 2.6339235 1.4284114e-10 2.348
-0.54393363 2.6134572 1.4245523e-10 2.3270001
-0.52949286 2.5829077 1.4143242e-10 2.296
-0.51673079 2.6082547 1.438521e-10 2.3210001
-0.50293005 2.5915365 1.4366686e-10 2.3040001
-0.48958847 2.5967352 1.4484404e-10 2.309
-0.47612038 2.5908568 1.4532595e-10 2.3030002
-0.46272948 2.6098998 1.4738528e-10 2.322
-0.44928262 2.598865 1.4753844e-10 2.3110001
-0.43596411 2.5877528 1.4767851e-10 2.3000002
-0.42256877 2.5885623 1.4858043e-10 2.3010001
-0.40911734 2.5912931 1.496079e-10 2.3040001
-0.395345 2.6039412 1.5128541e-10 2.3170002
-0.38218465 2.5945196 1.5152279e-10 2.3080001
-0.36832365 2.6050072 1.5306877e-10 2.319
-0.35581666 2.5834455 1.5249386e-10 2.2980001
-0.34251696 2.5817904 1.5323322e-10 2.2970002
-0.32674637 2.6229866 1.5685021e-10 2.3390002
-0.31551954 2.5852349 1.5516607e-10 2.302
-0.30021384 2.6122766 1.5785484e-10 2.3300002
-0.287222 2.6043158 1.5817429e-10 2.3230002
-0.27083269 2.6391416 1.6142611e-10 2.3590002
-0.25689793 2.6409783 1.624275e-10 2.3620002
-0.24284263 2.6437283 1.6349451e-10 2.3660002
-0.22638638 2.6702776 1.6622508e-10 2.3940001
-0.20909294 2.7016869 1.6931739e-10 2.427
-0.18845651 2.7598109 1.7431816e-10 2.4870002
-0.16400972 2.844593 1.8125346e-10 2.5740001
-0.14804821 2.8517494 1.827213e-10 2.5830002
-0.13555832 2.8310342 1.8219905e-10 2.5640001
-0.1195722 2.8380125 1.8365713e-10 2.5730002
-0.10182795 2.8567739 1.8597499e-10 2.5940001
2.3043242 19.216829 1.3775048e-09 19.130001
2.4148414 19.203384 1.3836682e-09 19.133001
2.5240462 19.181389 1.3892054e-09 19.128
2.6406991 19.205145 1.3981204e-09 19.17
2.752033 19.194664 1.4045239e-09 19.178001
2.8669875 19.204208 1.4124287e-09 19.207001
2.9794769 19.198298 1.4191958e-09 19.221001
3.0907171 19.184835 1.4254041e-09 19.228001
3.2030597 19.176613 1.4320151e-09 19.241001
3.3215084 19.198118 1.4409012e-09 19.285002
3.4308414 19.17285 1.4462387e-09 19.282001
3.5485208 19.187057 1.4546127e-09 19.320002
3.6660693 19.19858 1.4628078e-09 19.356001
3.7795105 19.189859 1.4694569e-09 19.372002
3.8945591 19.187275 1.4765977e-09 19.395
4.0175538 19.217083 1.4862996e-09 19.452002
4.1282997 19.193621 1.4918414e-09 19.455002
4.2478623 19.205412 1.5001816e-09 19.495001
4.3647513 19.204824 1.507566e-09 19.523001
4.4802756 19.197712 1.5144493e-09 19.545
4.6323266 19.326101 1.5322554e-09 19.708
4.8977547 19.86134 1.5830924e-09 20.294001
5.0215054 19.865458 1.5912114e-09 20.331001
5.1496143 19.883219 1.6004732e-09 20.383001
0.67984301 4.1892357 3.2020842e-10 4.0650001
0.69678891 4.1633658 3.1964179e-10 4.0450001
0.71551687 4.1441259 3.1960928e-10 4.0320001
0.74417889 4.1572595 3.2226302e-10 4.053
0.79425383 4.2368951 3.3049879e-10 4.1440001
3.9287825 13.817246 1.1378094e-09 14.224001
4.0177803 13.822805 1.143813e-09 14.257001
4.1018744 13.812624 1.1485061e-09 14.274001
4.1840501 13.796248 1.1526839e-09 14.285001
4.2764416 13.808629 1.1593363e-09 14.327001
4.366446 13.812857 1.1653194e-09 14.361001
4.4716926 13.857846 1.1748583e-09 14.439001
4.5828328 13.916132 1.1856158e-09 14.532001
6.9236197 19.888603 1.7134526e-09 20.946001
7.0582809 19.899464 1.7226923e-09 21.004002
7.1944079 19.912212 1.7321449e-09 21.065001
7.3198714 19.896156 1.7390914e-09 21.096001
7.4439106 19.875593 1.7456616e-09 21.123001
7.4514141 19.570238 1.72675e-09 20.843
7.4875946 19.342068 1.7145598e-09 20.646002
7.6170402 19.339691 1.7226279e-09 20.694
7.7312937 19.300638 1.7274027e-09 20.703001
7.8249092 19.214182 1.7278572e-09 20.661001
7.8291984 18.928095 1.7099649e-09 20.401001
7.8444424 18.673592 1.6947735e-09 20.175001
7.8645148 18.435909 1.6809568e-09 19.967001
7.8787279 18.191372 1.6663326e-09 19.751001
7.8831129 17.931921 1.6501377e-09 19.518002
7.9128976 17.731628 1.6393115e-09 19.35
7.9274945 17.504622 1.6258249e-09 19.152
7.9481606 17.295074 1.6138323e-09 18.973001
7.9433522 17.039396 1.5972931e-09 18.742001
3.8696275 8.7967958 8.1528811e-10 9.5480003
3.8961098 8.7270288 8.1253981e-10 9.4980001
3.9024384 8.6200371 8.0614837e-10 9.4060001
3.9057963 8.5097284 7.9935775e-10 9.3100004
3.9165554 8.4155121 7.9405871e-10 9.2320004
3.9254098 8.3196964 7.8853724e-10 9.1520004
3.9730263 8.2957869 7.9004253e-10 9.1540003
4.0254097 8.2803164 7.9238621e-10 9.1660004
4.0916123 8.2888412 7.9713092e-10 9.2060003
4.1605635 8.3011961 8.0229334e-10 9.2510004
4.2106328 8.2802134 8.0414009e-10 9.2580004
4.2840624 8.2984953 8.0996315e-10 9.3110008
4.3413897 8.2887554 8.1298468e-10 9.3320007
4.4039612 8.2871628 8.1685642e-10 9.3630009
4.47612 8.3004351 8.2228074e-10 9.4120007
4.6084428 8.4089899 8.3757484e-10 9.5740004
4.6860666 8.4275303 8.4368063e-10 9.6310005
4.7576041 8.4353371 8.4871848e-10 9.6760006
8.17103 13.592426 1.3928894e-09 15.860001
8.1834726 13.44337 1.3842153e-09 15.742001
8.2044487 13.309607 1.3770541e-09 15.642001
8.2001314 13.14039 1.3660358e-09 15.499001
8.2076693 12.991492 1.3570604e-09 15.380001
8.2211609 12.85364 1.3491643e-09 15.274001
8.2344913 12.717702 1.3413796e-09 15.170001
8.2448015 12.579588 1.3332648e-09 15.063001
8.2572985 12.446655 1.3256179e-09 14.962001
8.2761812 12.324514 1.3190617e-09 14.874001
1.4217174 2.8511734 2.8235445e-10 3.1810002
1.4485337 2.8562193 2.8437747e-10 3.2010002
1.4598325 2.8402686 2.8408212e-10 3.1950002
1.4716166 2.825069 2.8386524e-10 3.1900001
8.2951612 11.64089 1.2768613e-09 14.338
8.3062878 11.519603 1.2698668e-09 14.249001
8.318162 11.400927 1.2630855e-09 14.163001
8.3389444 11.29499 1.2576788e-09 14.093
8.3424397 11.168979 1.2498999e-09 13.997001
8.3435011 11.041755 1.2418894e-09 13.899001
8.3401918 10.911036 1.2333796e-09 13.796
8.3652172 10.815975 1.2289327e-09 13.739
8.3674402 10.695057 1.2213963e-09 13.648001
8.3744192 10.5813 1.2146167e-09 13.566001
8.3639803 10.448942 1.20555e-09 13.459001
8.376729 10.344849 1.1997502e-09 13.389001
8.3839149 10.235721 1.1932776e-09 13.312
8.3874569 10.123879 1.1864013e-09 13.231001
2.5443139 3.5905101 4.0057485e-10 4.4660001
2.5831208 3.5942979 4.0327933e-10 4.4950004
2.594804 3.56848 4.0238188e-10 4.4840002
2.6186378 3.5557363 4.0308601e-10 4.4910002
8.4137049 9.5938902 1.1544171e-09 12.860001
8.4246387 9.4974861 1.1489902e-09 12.798
8.4564066 9.4234533 1.1463067e-09 12.767
2.2013319 2.9533246 3.3834072e-10 3.7680001
2.2032843 2.9244244 3.366297e-10 3.7490001
2.2228663 2.9130702 3.3715211e-10 3.7550001
2.228744 2.8883731 3.3595721e-10 3.7420001
2.1903169 2.8215616 3.2927525e-10 3.6680002
2.1919227 2.7937322 3.2761022e-10 3.6500001
2.2313116 2.8014495 3.3060116e-10 3.6840003
2.4502287 2.9742301 3.5547135e-10 3.9620001
2.7495713 3.2159584 3.8982578e-10 4.3460002
2.7747219 3.2045906 3.9070089e-10 4.3570004
2.8020885 3.195024 3.9183107e-10 4.3710003
2.8249493 3.181273 3.9240947e-10 4.3790002
8.4963083 8.0815268 1.0636367e-09 11.874001
8.5005474 7.9940767 1.0583534e-09 11.820001
8.5177898 7.9184985 1.0546496e-09 11.784
8.5084219 7.821116 1.0478716e-09 11.714001
8.5059204 7.7304883 1.0419585e-09 11.654
8.5142689 7.6496582 1.0373564e-09 11.609
8.5289736 7.5746512 1.0335276e-09 11.573001
8.5274992 7.4872198 1.0278827e-09 11.517
8.5496225 7.419291 1.0249743e-09 11.492001
8.5224199 7.3131585 1.0165084e-09 11.405001
8.561552 7.259553 1.0155895e-09 11.403001
8.5327997 7.1541543 1.0070718e-09 11.316001
8.569396 7.0993052 1.0059128e-09 11.312
8.5447159 6.9988542 9.9796782e-10 11.232
8.5610523 6.9297485 9.9461728e-10 11.204
8.5502014 6.8412728 9.8831077e-10 11.143001
8.5686779 6.774735 9.8525921e-10 11.119
8.5981045 6.7163053 9.8341768e-10 11.109
8.6148729 6.6491451 9.8021813e-10 11.084001
8.5941677 6.5563965 9.7301456e-10 11.014001
3.915004 3.2800634 4.6789328e-10 5.302
3.9132731 3.2416818 4.653464e-10 5.2790003
3.9020925 3.1973205 4.6181983e-10 5.2450004
3.6023791 2.96349 4.2794335e-10 4.8660002
3.6027822 2.9299917 4.2584203e-10 4.848
3.588922 2.8215375 4.1807588e-10 4.7780004
3.6035922 2.7979298 4.1750839e-10 4.7780004
3.6855857 2.8153467 4.2382031e-10 4.8570004
3.9084575 2.9164176 4.4438853e-10 5.1000004
3.920234 2.8889079 4.4338955e-10 5.0960002
3.9214842 2.8552856 4.4133414e-10 5.0800004
3.9337473 2.8282413 4.4039564e-10 5.0770001
3.9354198 2.795198 4.3840381e-10 5.0620003
3.9464443 2.7676141 4.373524e-10 5.0580001
4.0115108 2.7700682 4.416395e-10 5.1160002
4.0820165 2.7747283 4.4641205e-10 5.1800003
4.1324859 2.7677267 4.4917195e-10 5.2210002
4.1839094 2.7606916 4.5199033e-10 5.2630005
4.2575417 2.7647586 4.5692372e-10 5.3300004
4.3118372 2.757942 4.5993831e-10 5.3750005
4.3893728 2.7623901 4.651437e-10 5.4460001
4.429595 2.7471535 4.6673015e-10 5.4750004
8.6811905 4.8182087 8.6817653e-10 10.204
8.6858225 4.7544146 8.6442015e-10 10.18
8.7170572 4.7037263 8.6318497e-10 10.186001
8.7037325 4.6318398 8.5777463e-10 10.143001
8.705287 4.5674496 8.5378499e-10 10.117001
8.7282095 4.5132141 8.517968e-10 10.115001
8.774498 4.4695807 8.5196533e-10 10.139001
8.7420368 4.3905373 8.4488561e-10 10.077001
8.73736 4.324471 8.4039387e-10 10.046
8.7395706 4.2617698 8.365531e-10 10.023001
8.7542486 4.2046552 8.3385865e-10 10.014001
8.7436628 4.1370888 8.2889656e-10 9.9780006
8.7640495 4.0827127 8.267384e-10 9.9760008
8.7590847 4.0181036 8.2232093e-10 9.9470005
8.7731934 3.9614432 8.1961921e-10 9.9390001
8.7301464 3.8825288 8.1187546e-10 9.8700008
8.7947721 3.8458588 8.1365048e-10 9.9170008
8.7956676 3.7845299 8.0981333e-10 9.8960009
8.7736626 3.7149625 8.0399903e-10 9.8510008
0.46200001 7.9181004 -5.2102661e-10 8.2060003
0.51056159 8.0599594 -5.3311705e-10 8.3480005
0.56020319 8.1525288 -5.4214649e-10 8.441
0.60938823 8.1568146 -5.4554156e-10 8.4460001
0.6584866 8.1548147 -5.48532e-10 8.4450006
0.70826471 8.1765184 -5.5307064e-10 8.4680004
0.75732499 8.1699457 -5.5576832e-10 8.4630003
0.64063114 4.0964627 -2.8971986e-10 4.388
0.66469061 4.064383 -2.8921063e-10 4.3570004
0.69131327 4.0880961 -2.9240663e-10 4.3820004
0.71653259 4.082695 -2.9366493e-10 4.3780003
0.74303973 4.0981054 -2.9632641e-10 4.395
0.77085078 4.1293159 -3.0007388e-10 4.428
0.79782557 4.1443958 -3.0274411e-10 4.4450002
0.82425404 4.1503406 -3.0479957e-10 4.4530001
0.85058874 4.1541357 -3.067126e-10 4.4590001
0.87521374 4.1388564 -3.0730601e-10 4.4460001
0.89898324 4.1164751 -3.0739417e-10 4.4260001
0.92219281 4.0909853 -3.0724936e-10 4.4030004
0.94523114 4.0663676 -3.0714911e-10 4.381
0.96590906 4.0237536 -3.0575631e-10 4.3410001
0.98757017 3.9929581 -3.0517633e-10 4.3130002
1.0055718 3.93627 -3.0271999e-10 4.2590003
1.021331 3.8676264 -2.9936217e-10 4.1930003
1.0349188 3.7890418 -2.9523531e-10 4.1170001
1.0544227 3.7569463 -2.9443584e-10 4.0880003
1.0726686 3.7188308 -2.9317423e-10 4.053
1.0904913 3.6806417 -2.918811e-10 4.0180001
1.1075664 3.6404085 -2.9041072e-10 3.9810002
1.1240269 3.5991259 -2.8883468e-10 3.9430001
1.1454115 3.5883152 -2.8950606e-10 3.9360001
1.1627471 3.5557446 -2.8853875e-10 3.9070003
1.1793571 3.5211389 -2.8739613e-10 3.8760002
1.1959698 3.4884341 -2.863744e-10 3.8470001
1.2073139 3.4311533 -2.834577e-10 3.7930002
1.2261049 3.4130442 -2.83501e-10 3.7790003
1.2461655 3.4016893 -2.8405375e-10 3.7720001
1.2650524 3.3853424 -2.8421504e-10 3.7600002
1.2822405 3.3620708 -2.8382879e-10 3.7410002
1.5039861 2.8569744 -2.6583788e-10 3.3130002
1.5171422 2.8357012 -2.6532249e-10 3.2970002
1.5330161 2.822892 -2.6551708e-10 3.2900002
1.5530801 2.8222706 -2.6675157e-10 3.2960002
1.5785573 2.8365879 -2.6927824e-10 3.3180001
4.0947814 8.5560598 -7.9219037e-10 9.5610008
4.1226611 8.478488 -7.8903523e-10 9.5
4.1118646 8.3116026 -7.7775358e-10 9.342
4.1285605 8.2130947 -7.7255907e-10 9.2580004
4.1936035 8.2273426 -7.7759355e-10 9.2970009
4.2402287 8.1990967 -7.787605e-10 9.2900009
4.3010707 8.2024879 -7.8283885e-10 9.3180008
4.3595757 8.2000036 -7.8639584e-10 9.3400002
4.4198723 8.2007513 -7.9027174e-10 9.3660002
4.477314 8.1947575 -7.9353835e-10 9.3850002
4.5443482 8.2082119 -7.9864887e-10 9.4260006
4.6046605 8.2067909 -8.0238804e-10 9.4510002
4.6721907 8.2192955 -8.074697e-10 9.4920006
4.7584047 8.2679386 -8.1603224e-10 9.5740004
4.8321624 8.2900267 -8.2211782e-10 9.6270008
4.8939247 8.2875566 -8.2588253e-10 9.6530008
3.9011133 6.0910897 -6.2338446e-10 7.2470002
2.274354 2.8941777 -3.1711328e-10 3.6620002
2.3053329 2.9052324 -3.1978217e-10 3.6870003
2.2515779 2.7304592 -3.0527214e-10 3.5090001
2.2783759 2.7354276 -3.0728908e-10 3.5270002
2.84658 3.6293924 -4.001271e-10 4.5860004
2.9076469 3.6775882 -4.0706458e-10 4.6590004
2.9502785 3.6946731 -4.1085615e-10 4.6960001
2.9947953 3.7139301 -4.1490539e-10 4.7360001
2.772481 3.225461 -3.6977535e-10 4.2050004
2.7917709 3.2102962 -3.7003728e-10 4.2030001
2.7992208 3.1776161 -3.6843531e-10 4.1800003
2.8306198 3.1804774 -3.7061063e-10 4.2000003
2.8501868 3.1658175 -3.7092221e-10 4.1990004
2.8782668 3.1633353 -3.7254749e-10 4.2130003
2.8913627 3.139431 -3.7186121e-10 4.2010002
8.5770283 11.02072 -1.2332729e-09 13.919001
8.546875 10.841446 -1.2199757e-09 13.756001
8.6073322 10.788588 -1.2204581e-09 13.749001
8.6149025 10.664812 -1.2130799e-09 13.654
8.5707626 10.474237 -1.198177e-09 13.475
8.5828991 10.360887 -1.1917506e-09 13.392
8.616601 10.277052 -1.1885675e-09 13.346001
8.5978918 10.12699 -1.1778517e-09 13.216001
8.6161661 10.026143 -1.1726089e-09 13.148001
8.6016827 9.8856153 -1.1627667e-09 13.029
8.6254873 9.7945709 -1.1584974e-09 12.973001
8.6174536 9.6656933 -1.1498044e-09 12.868001
8.620965 9.5526485 -1.1428498e-09 12.783001
8.6298656 9.4475632 -1.1367427e-09 12.708
8.6423521 9.3480463 -1.1312168e-09 12.64
8.6181202 9.2069941 -1.1207223e-09 12.517
8.6272945 9.106555 -1.1149277e-09 12.447001
8.4321795 8.7750463 -1.0814906e-09 12.069
8.1936092 8.4013119 -1.0426132e-09 11.631001
8.1884918 8.2945032 -1.0355067e-09 11.548
8.2214508 8.2309294 -1.0335629e-09 11.523001
8.2451229 8.1577034 -1.0304165e-09 11.485001
8.287302 8.1049719 -1.0297465e-09 11.475
8.3353062 8.0585814 -1.029849e-09 11.474001
8.4009857 8.0307255 -1.0322505e-09 11.499001
8.4728584 8.0088615 -1.0354257e-09 11.533001
8.5202875 7.9614058 -1.0354241e-09 11.532001
8.607502 7.9542203 -1.0405053e-09 11.588
3.6031625 2.817416 -3.9660997e-10 4.4170003
3.6340427 2.7757983 -3.9592821e-10 4.4100003
3.6525345 2.7579849 -3.9597128e-10 4.4110003
3.7160196 2.7826102 -4.015657e-10 4.474
3.9400523 2.9559698 -4.2679749e-10 4.756
3.9573929 2.9343269 -4.2652432e-10 4.7540002
3.9657295 2.90451 -4.2516046e-10 4.7400002
3.9649205 2.8666754 -4.2270684e-10 4.7140002
3.9637907 2.8289585 -4.2024034e-10 4.6880002
3.9690986 2.7973068 -4.1856768e-10 4.671
3.9454806 2.7407668 -4.1347817e-10 4.6160002
3.9645567 2.7217548 -4.1348225e-10 4.618
4.0216413 2.7349887 -4.1794701e-10 4.6700001
4.0514216 2.7245162 -4.1917292e-10 4.6860003
4.0842791 2.7163529 -4.2074083e-10 4.7060003
4.1086545 2.7009356 -4.2130963e-10 4.7150002
4.1757131 2.7199528 -4.2677487e-10 4.7790003
4.2087622 2.7107961 -4.2829187e-10 4.7990003
4.2622228 2.7174838 -4.321109e-10 4.8450003
4.3024921 2.7131827 -4.3439463e-10 4.8740001
4.3610439 2.7225704 -4.3870835e-10 4.9260001
4.4039326 2.7192469 -4.4122045e-10 4.9580002
4.4469137 2.7155259 -4.4371321e-10 4.9900002
4.4915876 2.7126 -4.4636395e-10 5.0240002
4.4872246 2.6731093 -4.4357953e-10 4.9970002
8.7045097 5.7018209 -9.0365226e-10 10.189
8.7050943 5.6292801 -8.9908353e-10 10.147
8.7124567 5.5621409 -8.9528807e-10 10.114
8.7152214 5.4922485 -8.9102592e-10 10.076
8.7199211 5.4242301 -8.8700564e-10 10.041
8.7323675 5.3619938 -8.8384428e-10 10.016001
8.7203283 5.2835875 -8.7810159e-10 9.9620008
8.7268 5.2182655 -8.7436502e-10 9.9310007
8.7344618 5.1541562 -8.70781e-10 9.9020004
1.9337718 0.66808796 -1.5414665e-10 1.7550001
1.9435169 0.66220945 -1.5439215e-10 1.7600001
1.9557779 0.65785468 -1.5489414e-10 1.7680001
1.9409024 0.63642895 -1.5258926e-10 1.7440001
1.9275309 0.61625892 -1.5045959e-10 1.7220001
1.9319117 0.60719836 -1.5016245e-10 1.7210001
1.9259512 0.59193587 -1.4881495e-10 1.7080001
1.9456662 0.59207714 -1.5007567e-10 1.725
1.9386774 0.57635993 -1.4863399e-10 1.7110001
1.9393501 0.56525481 -1.4797161e-10 1.7060001
1.9503701 0.56011164 -1.4834475e-10 1.7130001
1.9535345 0.55045933 -1.479328e-10 1.7110001
1.9575114 0.54128379 -1.4760274e-10 1.71
1.9500265 0.5258528 -1.4614772e-10 1.6960001
1.9591358 0.51955646 -1.4632633e-10 1.7010001
1.9329062 0.49439892 -1.4306359e-10 1.6660001
1.9462881 0.49047336 -1.43664e-10 1.6760001
1.9472377 0.47998881 -1.4305859e-10 1.6720001
1.9516795 0.47133595 -1.4279121e-10 1.6720001
1.9480287 0.45861736 -1.4175187e-10 1.6630001
1.9353187 0.44153008 -1.3985994e-10 1.6440001
1.9557143 0.44083974 -1.411111e-10 1.6620001
1.9518168 0.42823914 -1.4006357e-10 1.6530001
1.9550537 0.41913256 -1.3969088e-10 1.6520001
1.9627664 0.41212618 -1.3973574e-10 1.6560001
1.9413693 0.39169571 -1.3707997e-10 1.628
1.9370977 0.37936917 -1.3602609e-10 1.6190001
1.9446082 0.37240443 -1.3606075e-10 1.623
1.9539194 0.3661778 -1.3625659e-10 1.6290001
1.9512718 0.35471472 -1.3536067e-10 1.6220001
1.9347346 0.33744207 -1.3321395e-10 1.6
1.9549564 0.335803 -1.3439384e-10 1.618
1.9409854 0.31988567 -1.3249613e-10 1.5990001
1.9621116 0.31839153 -1.3374263e-10 1.618
1.9665425 0.31002426 -1.3349269e-10 1.6190001
1.9755838 0.30344546 -1.3364905e-10 1.6250001
1.9453908 0.28172538 -1.3035291e-10 1.5890001
1.9449369 0.27167448 -1.2968593e-10 1.585
1.9444163 0.26164818 -1.2901627e-10 1.5810001
1.9475881 0.2530154 -1.2866953e-10 1.5810001
1.9610674 0.24806769 -1.2921124e-10 1.5920001
1.9452884 0.23271468 -1.2723456e-10 1.572
1.9341097 0.21919204 -1.2566619e-10 1.557
1.937982 0.2109402 -1.2538812e-10 1.5580001
1.9560461 0.20738043 -1.2630905e-10 1.5740001
1.963657 0.20022659 -1.2633807e-10 1.5790001
1.9779047 0.19512615 -1.2691885e-10 1.5910001
2.0140982 0.19673152 -1.2931882e-10 1.626
2.0800047 0.20699912 -1.3415538e-10 1.692
2.1183004 0.20819479 -1.3666282e-10 1.7290001
2.14131 0.20445979 -1.3788663e-10 1.7500001
2.1922071 0.20847073 -1.4137293e-10 1.8000001
2.2374291 0.21028472 -1.443594e-10 1.8440001
2.2827294 0.21158908 -1.4731849e-10 1.8880001
2.3735003 0.22455317 -1.5390497e-10 1.9790001
2.4354591 0.22887768 -1.5811354e-10 2.0400002
2.4549022 0.22159976 -1.5888593e-10 2.0570002
2.4685051 0.21266076 -1.5918207e-10 2.0680001
2.5355124 0.21658261 -1.6368558e-10 2.1340001
2.5247898 0.2012817 -1.6203326e-10 2.1200001
2.4934986 0.18139596 -1.5878387e-10 2.085
2.5596104 0.18383223 -1.6313621e-10 2.1500001
2.5857644 0.17675164 -1.6434726e-10 2.174
2.6627684 0.18020093 -1.6945551e-10 2.25
2.7261715 0.17993668 -1.7346441e-10 2.312
2.8229804 0.18563619 -1.7997301e-10 2.4080002
2.8463085 0.17590381 -1.8083625e-10 2.4290001
2.9207029 0.17554793 -1.8553721e-10 2.5020001
2.9636915 0.1685974 -1.8782538e-10 2.5430002
3.0578895 0.17019916 -1.9390803e-10 2.6360002
3.1709175 0.17391279 -2.0132035e-10 2.7480001
3.2317758 0.16772354 -2.0479146e-10 2.8070002
3.3459854 0.16929646 -2.121429e-10 2.9200001
3.4177957 0.16306993 -2.1630703e-10 2.9900002
3.5074379 0.15863439 -2.2171709e-10 3.0780001
3.5753403 0.15010589 -2.2548692e-10 3.1440001
3.5669341 0.13051866 -2.2370954e-10 3.1330001
3.5524549 0.1102773 -2.2150501e-10 3.1160002
3.5537264 0.092170924 -2.2043611e-10 3.1150002
3.5628376 0.074993216 -2.1992394e-10 3.1220002
3.5738409 0.057943046 -2.1954001e-10 3.131
3.5569046 0.037846416 -2.1718866e-10 3.1120002
3.5557618 0.019540608 -2.1595381e-10 3.1090002
3.5624762 0.002004063 -2.1526667e-10 3.1140001
3.5601256 -0.016385956 -2.1394977e-10 3.1100001
3.5486956 -0.035472408 -2.1201219e-10 3.0970001
3.5541003 -0.053129748 -2.1123422e-10 3.1010001
3.5494282 -0.071540333 -2.0976863e-10 3.095
3.5426512 -0.090016671 -2.0816521e-10 3.0870001
3.5467453 -0.10776588 -2.0729819e-10 3.0900002
3.5357573 -0.12634321 -2.05421e-10 3.0780001
3.5546255 -0.14338621 -2.0553688e-10 3.0960002
3.5514174 -0.1615424 -2.0418038e-10 3.0920002
3.513124 -0.18088308 -2.00521e-10 3.0530002
3.5556767 -0.19740565 -2.0217375e-10 3.095
3.5311577 -0.21598938 -1.9943702e-10 3.0700002
3.5285249 -0.23389708 -1.9813282e-10 3.0670002
3.5257871 -0.2517719 -1.9682406e-10 3.0640001
3.5209458 -0.2696248 -1.9538313e-10 3.0590003
3.533 -0.2874175 -1.9501878e-10 3.0710001
3.5619504 -0.30544606 -1.9571224e-10 3.1000001
3.5237985 -0.32304254 -1.9217258e-10 3.062
3.5335405 -0.34102595 -1.9164932e-10 3.072
3.5521746 -0.35933182 -1.9167015e-10 3.0910001
3.5427108 -0.37704632 -1.899445e-10 3.0820003
3.5221519 -0.3942709 -1.8754551e-10 3.062
3.5384676 -0.41275969 -1.8740753e-10 3.0790002
3.5237041 -0.43000484 -1.8537519e-10 3.0650001
3.5328119 -0.44833452 -1.8478967e-10 3.075
3.4968855 -0.46416587 -1.815034e-10 3.0400002
3.5107784 -0.48277405 -1.8120401e-10 3.0550001
3.5315399 -0.50203699 -1.8129914e-10 3.0770001
3.5242593 -0.51943707 -1.7973209e-10 3.0710001
3.5308344 -0.53789634 -1.7897753e-10 3.0790002
3.5173736 -0.55470008 -1.7705593e-10 3.0670002
3.5426533 -0.5749743 -1.7737375e-10 3.0940001
3.5090871 -0.58973569 -1.7430526e-10 3.062
3.5112579 -0.6078732 -1.7329149e-10 3.0660002
3.5282292 -0.62769878 -1.7311026e-10 3.085
3.5172617 -0.64448637 -1.7134799e-10 3.0760002
3.500247 -0.66042757 -1.6925551e-10 3.0610001
3.5059633 -0.67911512 -1.6843192e-10 3.0690002
3.5343597 -0.70094609 -1.6884878e-10 3.1000001
3.5140798 -0.71630937 -1.6658568e-10 3.0820003
3.4887784 -0.73072714 -1.6406376e-10 3.0590003
3.3961878 -0.73462993 -1.5793708e-10 2.9680002
3.2967432 -0.73637712 -1.5151207e-10 2.8700001
3.1756718 -0.73341882 -1.4401266e-10 2.7500002
3.0951536 -0.73594534 -1.3873988e-10 2.6710002
2.9703827 -0.72974414 -1.312115e-10 2.5470002
2.8851297 -0.72927523 -1.2582826e-10 2.4630001
2.81078 -0.72986418 -1.2107017e-10 2.3900001
2.661902 -0.71511519 -1.1255386e-10 2.2410002
2.5995669 -0.71592814 -1.0854437e-10 2.1800001
2.5382783 -0.71623278 -1.0463361e-10 2.1200001
2.4516277 -0.71043819 -9.949979e-11 2.0340002
2.3856335 -0.70813239 -9.5456004e-11 1.9690001
2.3304684 -0.70748377 -9.1994572e-11 1.9150001
2.2734292 -0.70575839 -8.8482506e-11 1.8590001
2.216475 -0.70338398 -8.5017049e-11 1.8030001
2.1751592 -0.70413917 -8.2345825e-11 1.7630001
2.1203105 -0.70104349 -7.9059849e-11 1.7090001
2.0820293 -0.70152986 -7.659836e-11 1.6720001
2.0437996 -0.70158511 -7.4167519e-11 1.6350001
1.9853399 -0.69577849 -7.0824402e-11 1.577
1.9405055 -0.69300574 -6.8153774e-11 1.5330001
1.9256063 -0.69809139 -6.6884859e-11 1.5200001
1.9164662 -0.70467025 -6.588681e-11 1.5130001
1.8890651 -0.70581686 -6.4074225e-11 1.4870001
1.8914001 -0.71554434 -6.3604851e-11 1.4920001
1.8927137 -0.72502089 -6.308655e-11 1.4960001
1.8815548 -0.73065639 -6.2020229e-11 1.4870001
1.8875313 -0.74163634 -6.1702532e-11 1.4960001
1.8896233 -0.75146544 -6.1211286e-11 1.501
1.8869025 -0.75976229 -6.0511735e-11 1.501
1.8926606 -0.77092206 -6.0168766e-11 1.5100001
1.8945545 -0.78086323 -5.965782e-11 1.5150001
1.8850569 -0.78687209 -5.8673261e-11 1.508
1.897198 -0.8005237 -5.8577351e-11 1.524
1.8894929 -0.8071546 -5.7667111e-11 1.5190001
1.8911369 -0.81718618 -5.7134554e-11 1.524
1.8889695 -0.82584351 -5.644726e-11 1.5250001
1.8848825 -0.83377713 -5.568402e-11 1.524
1.8760936 -0.8398633 -5.4739557e-11 1.5180001
1.8710001 -0.84734195 -5.3941306e-11 1.516
1.8946123 -0.86638719 -5.4231279e-11 1.5450001
1.8912228 -0.8747111 -5.3487558e-11 1.5450001
1.8877851 -0.88301516 -5.2742036e-11 1.5450001
1.8833785 -0.89090848 -5.1961067e-11 1.544
1.874337 -0.89679134 -5.1013471e-11 1.5380001
1.8835948 -0.91061407 -5.0723623e-11 1.552
1.921975 -0.93757468 -5.1448696e-11 1.598
1.8953899 -0.93576002 -4.9875944e-11 1.5730001
1.8725114 -0.93532699 -4.8450799e-11 1.552
1.8623766 -0.94056416 -4.7474785e-11 1.5450001
1.8648838 -0.95169324 -4.6927347e-11 1.552
1.8736185 -0.96590412 -4.657965e-11 1.5660001
1.8750437 -0.97673339 -4.5982558e-11 1.572
1.8790797 -0.98893237 -4.5464261e-11 1.5810001
1.8794464 -0.99940693 -4.4822472e-11 1.5860001
1.8699368 -1.0049175 -4.3868794e-11 1.58
1.88973 -1.0254881 -4.3819434e-11 1.6070001
1.8792149 -1.0305319 -4.283154e-11 1.6
1.8784031 -1.0406407 -4.2138161e-11 1.6040001
1.8863244 -1.0555092 -4.1697062e-11 1.618
1.8634071 -1.0537117 -4.0356097e-11 1.5970001
1.8781724 -1.0725126 -4.0099854e-11 1.6190001
1.8596339 -1.0729021 -3.8898058e-11 1.603
1.8793765 -1.0948727 -3.8756592e-11 1.631
1.8556035 -1.0921081 -3.742269e-11 1.6090001
1.8707554 -1.1118128 -3.7133626e-11 1.6320001
1.8883055 -1.1332504 -3.6886803e-11 1.6580001
1.8593601 -1.127117 -3.5438381e-11 1.6300001
1.8732485 -1.1466678 -3.5078853e-11 1.6520001
1.8580142 -1.1485652 -3.3991115e-11 1.6400001
5.0030537 -3.124121 -1.0824558e-10 5.3540001
4.9704218 -3.1403301 -1.0514449e-10 5.335
4.9444914 -3.160573 -1.0221279e-10 5.3240004
4.961256 -3.2083778 -1.0024195e-10 5.3640003
4.9667525 -3.2493334 -9.7990546e-11 5.3910003
4.9777508 -3.2943301 -9.5831849e-11 5.4250002
4.9809146 -3.3345234 -9.3480723e-11 5.4500003
4.9944992 -3.3821845 -9.1317107e-11 5.4880004
4.9287119 -3.3755183 -8.7563297e-11 5.4300003
4.5010366 -3.1147509 -7.6965767e-11 4.9300003
4.4249616 -3.0959935 -7.3326463e-11 4.8570004
4.3858075 -3.1026781 -7.0416027e-11 4.829
4.3321462 -3.0984256 -6.7278891e-11 4.783
4.2875319 -3.1001608 -6.4335988e-11 4.7480001
4.2494469 -3.1062486 -6.1531322e-11 4.7210002
4.1986413 -3.1023626 -5.8552226e-11 4.6780005
4.1503954 -3.0998003 -5.5651612e-11 4.638
4.1110158 -3.103493 -5.2916834e-11 4.6090002
4.0622616 -3.0994377 -5.007875e-11 4.5680003
4.0042644 -3.0874701 -4.7156154e-11 4.5150003
3.9832332 -3.1042809 -4.4753444e-11 4.5090003
3.9356985 -3.0995507 -4.2035646e-11 4.4690003
3.8829246 -3.0899286 -3.9295775e-11 4.4220004
3.8619471 -3.1059523 -3.6946463e-11 4.4160004
3.8240428 -3.1076891 -3.4429515e-11 4.388
3.7961466 -3.1174934 -3.2035784e-11 4.3730001
3.7454901 -3.1075237 -2.9452434e-11 4.3280001
3.7071414 -3.1075559 -2.7015508e-11 4.2990003
3.6989458 -3.1336489 -2.4838411e-11 4.3100004
3.69205 -3.1610703 -2.2659484e-11 4.3230004
3.6819715 -3.1858323 -2.0447354e-11 4.3320003
3.6805863 -3.2186527 -1.8275523e-11 4.3530002
3.6877537 -3.2596858 -1.612528e-11 4.3860002
3.6923573 -3.2988551 -1.393058e-11 4.4160004
3.6886106 -3.330631 -1.1675131e-11 4.4350004
3.6925619 -3.3700581 -9.422658e-12 4.4650002
3.7026384 -3.4158838 -7.15283e-12 4.5040002
3.6958344 -3.4458604 -4.8175084e-12 4.52
3.6980395 -3.4850004 -2.4723763e-12 4.5490003
3.6991904 -3.5235653 -9.6843933e-14 4.5770001
3.688751 -3.5508742 2.2999239e-12 4.5890002
3.6843944 -3.5846069 4.7183611e-12 4.6100001
3.7026832 -3.6421318 7.2095867e-12 4.664
3.6893322 -3.6674356 9.6639129e-12 4.6730003
3.7025659 -3.7210581 1.2228328e-11 4.7210002
3.7036874 -3.7625179 1.4789545e-11 4.7520003
3.6901991 -3.7886679 1.7306306e-11 4.7620001
3.7277114 -3.8709483 2.0148785e-11 4.848
3.8426828 -4.0407104 2.3627633e-11 5.0510001
4.1226945 -4.3993893 2.8622504e-11 5.5050001
4.0769148 -4.3958411 3.1303894e-11 5.4720001
4.0536132 -4.4175544 3.4162045e-11 5.473
4.0047598 -4.4095602 3.6756331e-11 5.4350004
3.975544 -4.4240017 3.9528294e-11 5.427
3.9340639 -4.4236917 4.2142314e-11 5.4000001
3.8978148 -4.4291964 4.4793405e-11 5.381
3.8806405 -4.4576197 4.7688544e-11 5.3920002
3.8368118 -4.4533491 5.0200219e-11 5.3610001
3.7950244 -4.4510527 5.2707637e-11 5.3330002
3.777575 -4.4789977 5.5589887e-11 5.3440003
3.743901 -4.4863963 5.8197724e-11 5.3290005
3.7133093 -4.4975019 6.0845232e-11 5.3190002
3.6820931 -4.5075994 6.3468369e-11 5.3080001
3.6141472 -4.4687691 6.5317016e-11 5.2360001
3.5754366 -4.4677873 6.7712558e-11 5.2120004
3.5534394 -4.4890494 7.0459236e-11 5.2160001
3.5048411 -4.4737983 7.257657e-11 5.1750002
3.4740236 -4.4824934 7.5085334e-11 5.164
3.4727137 -4.5325699 7.834805e-11 5.2040005
3.4823978 -4.5991521 8.1960702e-11 5.2640004
3.4618196 -4.6232281 8.4795934e-11 5.2720003
3.4410632 -4.6472101 8.7636523e-11 5.2800002
3.4050255 -4.6487169 9.0020373e-11 5.2610002
3.3757262 -4.6599383 9.2593155e-11 5.2540002
3.3452966 -4.6692958 9.5119371e-11 5.2450004
3.313767 -4.6767702 9.7595869e-11 5.2340002
3.2822483 -4.6840262 1.0005782e-10 5.223
3.2416461 -4.6767035 1.0217081e-10 5.1950002
3.2150083 -4.691103 1.047764e-10 5.1930003
3.1935494 -4.713851 1.0758327e-10 5.2010002
3.1604733 -4.7177095 1.0992837e-10 5.1870003
3.1356893 -4.7350459 1.1260275e-10 5.1890001
3.1067128 -4.7453642 1.1509767e-10 5.1830001
3.0772014 -4.7546325 1.1755993e-10 5.1760001
3.0421698 -4.7541842 1.1975575e-10 5.1580005
3.0062413 -4.7517414 1.2188189e-10 5.138
2.9895434 -4.7830276 1.2492855e-10 5.1570001
2.9468606 -4.7679219 1.2667953e-10 5.1230001
2.9236374 -4.7875652 1.2940125e-10 5.1290002
2.8883986 -4.7850871 1.3148134e-10 5.1100001
2.8579693 -4.7911801 1.3380028e-10 5.1010003
2.8326619 -4.8068128 1.3639971e-10 5.1030002
2.7888768 -4.7867742 1.3790742e-10 5.0650001
2.7644839 -4.8037977 1.4053708e-10 5.0690002
2.7332358 -4.8072863 1.4274264e-10 5.0580001
2.7073514 -4.8213181 1.4527705e-10 5.059
2.6822579 -4.8369994 1.4786598e-10 5.0620003
2.6457896 -4.8291097 1.4968053e-10 5.039
2.615911 -4.8345065 1.5192031e-10 5.0310001
2.5843518 -4.8360848 1.5402432e-10 5.0190001
2.5557706 -4.843811 1.563296e-10 5.0140004
2.5251095 -4.8468027 1.5846634e-10 5.0040002
2.4961128 -4.8532467 1.6071655e-10 4.9980001
2.4502413 -4.8210444 1.6158447e-10 4.9500003
2.4349349 -4.8582406 1.6491804e-10 4.9780002
2.4110522 -4.8760829 1.6756731e-10 4.9850001
2.3773875 -4.8707352 1.6936523e-10 4.967
2.3514571 -4.8836498 1.7183166e-10 4.9690003
2.310446 -4.859334 1.728917e-10 4.9310002
2.294167 -4.8960285 1.7625514e-10 4.9590001
2.2596848 -4.8870497 1.7787444e-10 4.9380002
2.226445 -4.8806262 1.795771e-10 4.9200001
2.2000518 -4.891748 1.8195906e-10 4.921
2.1683729 -4.8886547 1.8377407e-10 4.9070001
2.1395268 -4.8928652 1.8587293e-10 4.901
2.1150684 -4.9091372 1.8845903e-10 4.9080005
2.0878267 -4.9177313 1.9073437e-10 4.9070001
2.0563052 -4.9138751 1.9249093e-10 4.8930001
2.030009 -4.9249659 1.9486475e-10 4.8950005
1.9957671 -4.912178 1.9622694e-10 4.8720002
1.9703875 -4.9257765 1.9870181e-10 4.8770003
1.9430792 -4.9335198 2.0092736e-10 4.8760004
1.9160298 -4.9420571 2.0318686e-10 4.8760004
1.8830782 -4.9313121 2.0459684e-10 4.8560004
1.8563299 -4.9404583 2.0687589e-10 4.8570004
1.8303676 -4.9523287 2.0927801e-10 4.8610001
1.8001759 -4.9496369 2.1102407e-10 4.8500004
1.7692506 -4.9438634 2.1262106e-10 4.8360004
1.7439973 -4.9581394 2.1513091e-10 4.8430004
1.7095532 -4.9384737 2.1606923e-10 4.8150001
1.681972 -4.943718 2.1815343e-10 4.8130002
1.6551157 -4.9517045 2.2036573e-10 4.8140001
1.6308719 -4.9702091 2.2307996e-10 4.8260002
1.6033779 -4.9759579 2.2519066e-10 4.8250003
1.5770109 -4.9864097 2.2752841e-10 4.829
1.5474077 -4.9830732 2.2919619e-10 4.8190002
1.5156857 -4.9697962 2.3036731e-10 4.7990003
1.4845827 -4.9582629 2.3160984e-10 4.7810001
1.4613528 -4.9827161 2.3463739e-10 4.8000002
1.4307854 -4.9727817 2.3594746e-10 4.7840004
1.40391 -4.9802985 2.3813115e-10 4.7860003
1.3756422 -4.9807906 2.3995719e-10 4.7810001
1.3459176 -4.9732513 2.4136584e-10 4.7680001
1.3191863 -4.9812651 2.4357191e-10 4.7710004
1.287869 -4.9635224 2.4443383e-10 4.7480001
1.2591424 -4.9593759 2.459945e-10 4.7390003
1.2337413 -4.9747877 2.4858582e-10 4.75
1.2055237 -4.9732723 2.5028124e-10 4.7440004
1.1770477 -4.9696097 2.5185673e-10 4.7360001
1.1487848 -4.966764 2.5347058e-10 4.7290001
1.1180686 -4.9459243 2.5409763e-10 4.704
1.0904266 -4.9456983 2.5583838e-10 4.7000003
1.0657516 -4.9681187 2.5882863e-10 4.7190003
1.035095 -4.9437613 2.5922858e-10 4.691
1.0091655 -4.9569483 2.6171224e-10 4.7010002
0.98188508 -4.9590583 2.6357833e-10 4.7000003
0.95585656 -4.9729433 2.6611258e-10 4.7110004
0.92552412 -4.9448891 2.6625724e-10 4.6800003
0.89768004 -4.9395418 2.6768562e-10 4.6720004
0.87244993 -4.9629169 2.7077171e-10 4.6930003
0.84418613 -4.9522691 2.7189023e-10 4.6800003
0.81560481 -4.9354677 2.7263819e-10 4.6610003
0.789334 -4.9484191 2.7512853e-10 4.6720004
0.761832 -4.9442568 2.7661043e-10 4.6660004
0.73509085 -4.9519124 2.787944e-10 4.6720004
0.70700753 -4.9354467 2.7953204e-10 4.6540003
0.68048286 -4.9477816 2.8199937e-10 4.6650004
0.65406942 -4.9659591 2.848306e-10 4.6820002
0.62660688 -4.9600015 2.8619601e-10 4.6750002
0.59951389 -4.9638791 2.8816244e-10 4.6780005
0.57233423 -4.9655991 2.8999739e-10 4.6790004
0.54451746 -4.9321675 2.8964087e-10 4.6450005
0.51758325 -4.9395685 2.9182093e-10 4.6520004
0.49054742 -4.9438128 2.9380701e-10 4.6560001
0.46345541 -4.9199004 2.940089e-10 4.6320004
0.43650469 -4.9208302 2.9577912e-10 4.6330004
0.40946412 -4.9286027 2.9798955e-10 4.6410003
0.38262367 -4.9192204 2.99098e-10 4.6320004
0.35529363 -4.9356756 3.0187808e-10 4.6490002
0.32860404 -4.9229808 3.0276667e-10 4.6370001
0.30150479 -4.9261241 3.0468686e-10 4.6410003
0.27404174 -4.9371023 3.0712763e-10 4.6530004
0.24787749 -4.9169507 3.0750938e-10 4.6340003
0.22006899 -4.9326034 3.1026889e-10 4.651
0.19449985 -4.9061594 3.1021336e-10 4.6260004
0.16674834 -4.9184971 3.1275874e-10 4.6400003
0.14189957 -4.8867736 3.1232222e-10 4.6100001
0.11259454 -4.9187369 3.1621239e-10 4.6440001
0.086229488 -4.9096494 3.1730937e-10 4.6370001
0.05935042 -4.9073853 3.1887226e-10 4.6370001
0.030076567 -4.9308529 3.22221e-10 4.6630001
0.004256397 -4.9163198 3.2293768e-10 4.651
-0.023389576 -4.9205408 3.24961e-10 4.658
-0.048350457 -4.8997483 3.2522568e-10 4.6400003
-0.075748436 -4.9016681 3.2708714e-10 4.6450005
-0.10391534 -4.90938 3.293652e-10 4.6560001
-0.1296438 -4.8970833 3.3021802e-10 4.6470003
-0.15724459 -4.8995104 3.3212461e-10 4.6530004
-0.18225537 -4.8829556 3.3266151e-10 4.6400003
-0.21042059 -4.8890247 3.3483519e-10 4.6500001
-0.23537035 -4.8731718 3.3541275e-10 4.638
-0.26125139 -4.8640995 3.3647998e-10 4.6330004
-0.29255319 -4.888432 3.4001241e-10 4.6620002
-0.31427482 -4.8543892 3.3923009e-10 4.6320004
-0.34238541 -4.8586597 3.4128608e-10 4.6410003
-0.3686026 -4.8519359 3.4252379e-10 4.6390004
-0.39495334 -4.8460441 3.4382278e-10 4.638
-0.42354962 -4.8517804 3.4600267e-10 4.6490002
-0.45126051 -4.8524356 3.4780373e-10 4.6550002
-0.47678816 -4.8421483 3.487714e-10 4.6500001
-0.50471807 -4.8434577 3.5062789e-10 4.6570001
-0.52778971 -4.8221254 3.5073833e-10 4.6410003
-0.56203151 -4.8514171 3.5477229e-10 4.677
-0.58856076 -4.8453832 3.5607359e-10 4.677
-0.61160028 -4.8245978 3.5621672e-10 4.6620002
-0.64009625 -4.8270216 3.5817993e-10 4.671
-0.67010635 -4.8350897 3.6059764e-10 4.6860003
-0.69777489 -4.8332715 3.6223896e-10 4.691
-0.72419643 -4.826448 3.634833e-10 4.691
-0.74851006 -4.8117433 3.6409339e-10 4.6830001
-0.77771062 -4.8152342 3.6616912e-10 4.6940002
-0.80213773 -4.8012056 3.6682934e-10 4.6870003
-0.82726955 -4.7899299 3.6770911e-10 4.6830001
-0.86130196 -4.809227 3.7109518e-10 4.7110004
-0.88385659 -4.7889977 3.7124281e-10 4.6980004
-0.91410607 -4.7944818 3.7351167e-10 4.7120004
-0.94119114 -4.7892647 3.7490014e-10 4.7150002
-0.9591673 -4.7552962 3.7388473e-10 4.6880002
-0.99902171 -4.7897558 3.7860318e-10 4.7330003
-1.0251851 -4.7811809 3.7971992e-10 4.7330003
-1.0512978 -4.7724533 3.8082379e-10 4.7330003
-1.0786607 -4.7673569 3.8223755e-10 4.737
-1.1066766 -4.7639813 3.8380205e-10 4.743
-1.1373954 -4.7679658 3.8600548e-10 4.7570004
-1.1641126 -4.7604656 3.8722561e-10 4.7590003
-1.185937 -4.739677 3.8729139e-10 4.7470002
-1.2209735 -4.7543454 3.9044731e-10 4.7730002
-1.248717 -4.7491479 3.9187886e-10 4.7780004
-1.2750034 -4.7400527 3.9297038e-10 4.7790003
-1.3038239 -4.7373085 3.9462605e-10 4.7870002
-1.3278053 -4.7223244 3.9519732e-10 4.7820001
-1.3581268 -4.7229395 3.9716158e-10 4.7940001
-1.3931364 -4.734426 4.001138e-10 4.8180003
-1.4123342 -4.7079082 3.9964901e-10 4.8010001
-1.4506786 -4.7263179 4.0325251e-10 4.8330002
-1.4756629 -4.7132845 4.0401132e-10 4.8310003
-1.5086887 -4.7183843 4.0643205e-10 4.8490005
-1.5327811 -4.7031999 4.0699766e-10 4.8450003
-1.5517596 -4.6769791 4.065378e-10 4.829
-1.5987945 -4.7114196 4.1171097e-10 4.8800001
